# .PCD v0.7 - Point Cloud Data file format
VERSION 0.7
FIELDS x y z
SIZE 4 4 4
TYPE F F F
COUNT 1 1 1
WIDTH 1783
HEIGHT 1
VIEWPOINT 0 0 0 1 0 0 0
POINTS 1783
DATA ascii
3.16764 -1.7756 -0.0276428
3.18465 -1.77167 -0.0270723
3.22369 -1.79817 -0.0299371
3.03786 -1.76672 -0.0256268
3.13252 -1.74881 -0.0268875
3.15634 -1.75513 -0.0247689
3.1888 -1.76015 -0.0273188
3.10614 -1.71779 -0.0216988
3.1441 -1.71772 -0.0183401
3.15115 -1.73749 -0.0223402
3.07592 -1.69222 -0.0233529
3.10605 -1.69638 -0.0169939
3.0134 -1.81206 0.0158969
3.04492 -1.82127 0.00511479
3.01565 -1.78878 0.00624466
3.03102 -1.79471 0.0049752
3.44922 -1.02017 -0.302041
3.47881 -1.03148 -0.303472
3.49373 -1.0302 -0.304287
3.51489 -1.03153 -0.300382
3.41526 -1.00131 -0.300539
3.43524 -1.00025 -0.302209
3.46267 -1.00594 -0.304082
3.48894 -1.01542 -0.304052
3.40775 -0.971199 -0.304509
3.51643 -1.24275 -0.27403
3.40843 -1.20401 -0.27002
3.43921 -1.21232 -0.271123
3.47353 -1.21375 -0.272528
3.49074 -1.21436 -0.273158
3.41268 -1.1922 -0.270273
3.43652 -1.18331 -0.27294
3.45898 -1.18163 -0.272139
3.49454 -1.19 -0.273496
3.40917 -1.15376 -0.270203
3.43921 -1.16405 -0.271362
3.45554 -1.167 -0.272093
3.41679 -1.13262 -0.270656
3.42272 -1.11617 -0.271007
3.54785 -1.111 -0.271304
3.4088 -1.09128 -0.270705
3.49368 -1.08709 -0.279178
3.52615 -1.09107 -0.274462
3.55418 -1.09187 -0.273716
3.37721 -1.06566 -0.273541
3.40513 -1.06216 -0.277463
3.43281 -1.0623 -0.281889
3.49781 -1.06603 -0.287357
3.52663 -1.06543 -0.285369
3.55745 -1.06367 -0.280508
3.5804 -1.06859 -0.273445
3.35183 -1.03037 -0.275469
3.37556 -1.02975 -0.281576
3.41025 -1.03559 -0.286968
3.43289 -1.0338 -0.290896
3.46943 -1.03947 -0.296615
3.49663 -1.03542 -0.29759
3.52472 -1.03508 -0.29081
3.55835 -1.03539 -0.282853
3.5818 -1.03457 -0.274531
3.32057 -0.998691 -0.27442
3.33864 -1.01156 -0.275635
3.3778 -1.00844 -0.287339
3.39985 -1.00789 -0.292156
3.42773 -1.01185 -0.295278
3.46245 -1.00323 -0.297914
3.49864 -1.00386 -0.295733
3.52179 -1.00023 -0.290437
3.55151 -1.00742 -0.283175
3.26974 -0.974949 -0.270719
3.28638 -0.971314 -0.272538
3.31666 -0.970147 -0.280717
3.347 -0.976728 -0.286799
3.37503 -0.97779 -0.293924
3.40553 -0.98084 -0.297197
3.28527 -1.24681 -0.240926
3.31125 -1.24557 -0.243648
3.33932 -1.24113 -0.246492
3.37231 -1.24363 -0.254735
3.3993 -1.24284 -0.260239
3.52571 -1.24643 -0.264697
3.55062 -1.2414 -0.260644
3.31734 -1.22101 -0.24666
3.34862 -1.21571 -0.251996
3.37465 -1.21602 -0.257917
3.4031 -1.21311 -0.26375
3.44045 -1.21267 -0.266211
3.49675 -1.21436 -0.268407
3.52269 -1.21303 -0.266344
3.55367 -1.21523 -0.26244
3.58594 -1.21363 -0.259251
3.61274 -1.21462 -0.253911
3.6454 -1.21387 -0.250762
3.67255 -1.21553 -0.245549
3.70361 -1.21075 -0.244519
3.73411 -1.20042 -0.240063
3.28982 -1.1917 -0.241722
3.31594 -1.18485 -0.247852
3.34636 -1.17969 -0.257415
3.38066 -1.19123 -0.264012
3.40689 -1.18607 -0.26753
3.44819 -1.1912 -0.266671
3.46092 -1.1752 -0.267301
3.50445 -1.18238 -0.266017
3.52347 -1.19118 -0.265643
3.54356 -1.17954 -0.259831
3.58525 -1.18659 -0.259273
3.61715 -1.18251 -0.255365
3.64838 -1.18723 -0.252099
3.67673 -1.1817 -0.247055
3.69656 -1.19132 -0.244553
3.26614 -1.15843 -0.241361
3.28585 -1.15709 -0.246156
3.3139 -1.15906 -0.253523
3.3488 -1.15834 -0.260092
3.3667 -1.14886 -0.262049
3.41117 -1.15121 -0.266394
3.44312 -1.14813 -0.265095
3.46501 -1.15449 -0.26512
3.49592 -1.15755 -0.266075
3.5218 -1.1535 -0.261532
3.55266 -1.15588 -0.258279
3.59058 -1.15541 -0.257174
3.62701 -1.15899 -0.256082
3.64353 -1.15163 -0.252665
3.66982 -1.15446 -0.246699
3.24163 -1.11356 -0.240811
3.29384 -1.12918 -0.249558
3.30651 -1.11343 -0.251524
3.34888 -1.12679 -0.261246
3.3834 -1.12835 -0.266802
3.40038 -1.12017 -0.266909
3.43189 -1.1234 -0.266544
3.46518 -1.12357 -0.263041
3.55714 -1.12554 -0.261009
3.59255 -1.12911 -0.260257
3.6108 -1.11886 -0.255042
3.64444 -1.1254 -0.247319
3.66963 -1.12591 -0.244311
3.26043 -1.0988 -0.243799
3.28055 -1.08574 -0.248323
3.31958 -1.10007 -0.255352
3.34698 -1.08778 -0.264041
3.37802 -1.09245 -0.267035
3.39727 -1.09916 -0.266174
3.49434 -1.10083 -0.267296
3.52244 -1.10507 -0.265178
3.55968 -1.09865 -0.266166
3.58134 -1.09386 -0.263766
3.61535 -1.09428 -0.256723
3.63526 -1.09257 -0.246644
3.21935 -1.0542 -0.240751
3.25432 -1.06546 -0.243124
3.28562 -1.06163 -0.251758
3.31393 -1.0633 -0.259429
3.34857 -1.06526 -0.266429
3.37955 -1.06814 -0.268948
3.39092 -1.07208 -0.265302
3.56141 -1.07726 -0.26702
3.585 -1.06581 -0.265122
3.62062 -1.06358 -0.258107
3.6437 -1.06428 -0.248751
3.22522 -1.03695 -0.242396
3.25445 -1.03788 -0.250835
3.28584 -1.03416 -0.258412
3.31956 -1.0382 -0.264415
3.34815 -1.04001 -0.268636
3.59284 -1.0405 -0.265781
3.19718 -1.00446 -0.24191
3.23028 -1.00082 -0.251158
3.25037 -1.00311 -0.255857
3.28176 -1.00644 -0.261308
3.30815 -1.01107 -0.265852
3.17471 -0.97144 -0.24439
3.19763 -0.97447 -0.248885
3.2224 -0.970676 -0.256622
3.25663 -0.978913 -0.263216
3.27933 -0.979313 -0.264831
3.24695 -0.958478 -0.267517
3.28646 -1.24714 -0.23623
3.31589 -1.25332 -0.237046
3.26528 -1.22096 -0.236021
3.27098 -1.20515 -0.23636
3.70903 -1.21654 -0.23776
3.73223 -1.21363 -0.234182
3.76378 -1.21682 -0.224682
3.22303 -1.18285 -0.223907
3.28303 -1.19293 -0.236825
3.68578 -1.17075 -0.239179
3.70224 -1.18165 -0.236884
3.73254 -1.18048 -0.22928
3.76066 -1.18896 -0.225599
3.17504 -1.15855 -0.211275
3.19277 -1.1454 -0.216329
3.23004 -1.15477 -0.229061
3.24989 -1.16034 -0.232662
3.27048 -1.16411 -0.236788
3.67859 -1.15435 -0.239117
3.70371 -1.15168 -0.233381
3.73467 -1.15653 -0.224716
3.75832 -1.15703 -0.218648
3.16764 -1.11905 -0.212733
3.19455 -1.11982 -0.220734
3.22365 -1.1163 -0.231945
3.24279 -1.11388 -0.236247
3.6824 -1.12214 -0.23394
3.70764 -1.12253 -0.22417
3.73807 -1.13109 -0.21861
3.1606 -1.09829 -0.213899
3.19695 -1.09335 -0.226897
3.21835 -1.08193 -0.233587
3.24519 -1.10723 -0.236389
3.64811 -1.09173 -0.238965
3.67422 -1.09472 -0.231316
3.11355 -1.05911 -0.21106
3.13444 -1.06576 -0.213473
3.16873 -1.06906 -0.221435
3.19636 -1.05684 -0.229934
3.22187 -1.06719 -0.235216
3.64584 -1.06937 -0.239188
3.08437 -1.02792 -0.210559
3.10568 -1.03516 -0.212834
3.13166 -1.03107 -0.216762
3.16492 -1.03128 -0.226552
3.19468 -1.03296 -0.23395
3.22365 -1.04577 -0.236438
3.16673 -1.00848 -0.23291
3.1933 -1.01183 -0.235897
3.16403 -0.978742 -0.238227
3.11201 -1.15497 -0.196813
3.76704 -1.15296 -0.209411
3.06928 -1.12441 -0.185322
3.11751 -1.1327 -0.194958
3.13337 -1.1219 -0.19892
3.16198 -1.11933 -0.207001
3.078 -1.10033 -0.185695
3.10589 -1.09538 -0.19529
3.13179 -1.08662 -0.204249
3.04402 -1.05317 -0.183958
3.07625 -1.06405 -0.192265
3.10469 -1.06859 -0.200423
3.13507 -1.07583 -0.206665
3.04595 -1.03509 -0.192282
3.07308 -1.03277 -0.202579
3.09191 -1.04677 -0.206163
3.06356 -1.01618 -0.205857
3.02403 -1.09526 -0.171917
3.03507 -1.08455 -0.174847
2.98547 -1.06177 -0.160422
3.00935 -1.05432 -0.168615
3.03802 -1.06245 -0.177048
3.01081 -1.03766 -0.172835
3.04657 -1.04936 -0.179819
5.9681 -1.65438 -0.334561
5.97426 -1.63729 -0.334926
5.93525 -1.59421 -0.334001
5.84071 -1.56002 -0.330995
5.9383 -1.58575 -0.334182
5.94135 -1.57728 -0.334363
5.9947 -1.57718 -0.340605
5.84521 -1.54755 -0.331262
5.89896 -1.54324 -0.337614
5.95177 -1.53826 -0.348254
5.99974 -1.55978 -0.345368
5.80723 -1.51064 -0.330387
5.85802 -1.50537 -0.340715
5.90996 -1.50937 -0.342652
5.91189 -1.50068 -0.347152
5.95745 -1.52587 -0.344168
5.86252 -1.49289 -0.340982
5.91492 -1.49229 -0.347331
5.94247 -1.74594 -0.306252
5.99907 -1.74341 -0.307965
5.89611 -1.72305 -0.30513
5.95037 -1.72229 -0.308954
5.80077 -1.69074 -0.302549
5.85412 -1.68772 -0.308641
5.90221 -1.70612 -0.305493
5.95983 -1.69437 -0.311747
5.76318 -1.65259 -0.301922
5.80527 -1.67826 -0.302815
5.86168 -1.66674 -0.309089
5.91568 -1.65863 -0.319566
5.97033 -1.655 -0.325765
5.76912 -1.6361 -0.302275
5.82108 -1.62776 -0.312446
5.92026 -1.64593 -0.319838
5.97803 -1.63364 -0.326222
5.68278 -1.59395 -0.300061
5.73178 -1.59408 -0.305783
5.77506 -1.61961 -0.302628
5.82707 -1.61113 -0.312802
5.87806 -1.61129 -0.323217
5.88259 -1.5987 -0.323486
5.93594 -1.59906 -0.325193
5.98573 -1.61228 -0.326679
5.6857 -1.58585 -0.300235
5.73767 -1.57773 -0.306133
5.78732 -1.57464 -0.317716
5.792 -1.56385 -0.315122
5.84288 -1.56062 -0.322433
5.88713 -1.58611 -0.323756
5.94204 -1.58212 -0.325556
5.69818 -1.54475 -0.309443
5.7011 -1.53665 -0.309616
5.7956 -1.55276 -0.316772
5.84738 -1.54815 -0.3227
5.61294 -1.5088 -0.307025
5.70694 -1.52045 -0.309963
5.75656 -1.51555 -0.320066
5.61868 -1.49287 -0.307366
5.6668 -1.49232 -0.313172
5.67115 -1.48028 -0.31343
5.71691 -1.48311 -0.323256
5.58428 -1.45801 -0.30675
5.96768 -1.85798 -0.270059
5.97234 -1.84505 -0.270336
5.92453 -1.81614 -0.278401
5.98097 -1.81425 -0.279858
5.87833 -1.79262 -0.277529
5.88139 -1.78416 -0.27771
5.93419 -1.78593 -0.283439
5.98846 -1.78314 -0.293819
5.78481 -1.75491 -0.275526
5.8365 -1.75668 -0.281284
5.88875 -1.7536 -0.291421
5.9447 -1.74656 -0.297456
5.74351 -1.72194 -0.281368
5.78863 -1.73768 -0.284444
5.79313 -1.7252 -0.284711
5.8438 -1.7264 -0.294873
5.94932 -1.73374 -0.29773
5.60716 -1.68342 -0.27605
5.6521 -1.69683 -0.274955
5.69883 -1.7018 -0.282474
5.70096 -1.70239 -0.27406
5.75155 -1.6947 -0.288307
5.80294 -1.69134 -0.293986
5.5672 -1.66109 -0.271018
5.61111 -1.67568 -0.272086
5.66219 -1.66399 -0.281904
5.71289 -1.65626 -0.29185
5.80744 -1.67886 -0.294253
5.48113 -1.63273 -0.277358
5.52564 -1.64589 -0.270252
5.57476 -1.63649 -0.276223
5.62533 -1.62661 -0.285524
5.71731 -1.644 -0.292112
5.44525 -1.60492 -0.276744
5.48819 -1.61315 -0.277777
5.49242 -1.6014 -0.278029
5.5382 -1.6016 -0.283379
5.58147 -1.61833 -0.276027
5.63112 -1.61054 -0.285868
5.68055 -1.60402 -0.294848
5.46065 -1.56219 -0.277659
5.50308 -1.56559 -0.286847
5.54532 -1.58185 -0.283801
5.55062 -1.57029 -0.27999
5.59557 -1.56968 -0.289348
5.64534 -1.56148 -0.299305
5.68782 -1.58643 -0.291894
5.42082 -1.54236 -0.2807
5.51257 -1.54238 -0.283318
5.60131 -1.55375 -0.289689
5.65113 -1.54541 -0.299649
5.42835 -1.52044 -0.282489
5.43381 -1.50784 -0.27946
5.5186 -1.52251 -0.287769
5.52185 -1.51767 -0.282505
5.56745 -1.51415 -0.29337
5.61502 -1.50938 -0.298826
5.4407 -1.48675 -0.282456
5.4884 -1.47591 -0.291483
5.62076 -1.49345 -0.299167
5.37016 -1.44041 -0.276517
5.40946 -1.44656 -0.285395
5.44963 -1.46139 -0.283754
5.49247 -1.46565 -0.290372
5.53773 -1.46321 -0.29709
5.33564 -1.41486 -0.279874
5.96045 -1.89865 -0.242599
5.91652 -1.8656 -0.242211
5.96752 -1.87216 -0.252029
5.86777 -1.84556 -0.245932
5.91779 -1.85186 -0.255679
5.96993 -1.85861 -0.261182
5.97459 -1.84567 -0.261459
5.77443 -1.80691 -0.24449
5.82342 -1.81304 -0.254197
5.8725 -1.81894 -0.26391
5.92676 -1.81676 -0.269605
5.73301 -1.7757 -0.248434
5.78166 -1.7769 -0.257957
5.83072 -1.78276 -0.267785
5.64 -1.75139 -0.246718
5.68716 -1.75698 -0.251888
5.73572 -1.75832 -0.261519
5.78698 -1.75551 -0.266964
5.60148 -1.7216 -0.24633
5.6481 -1.72245 -0.255667
5.69426 -1.72749 -0.265121
5.51333 -1.69894 -0.244759
5.55757 -1.70367 -0.249639
5.60412 -1.70466 -0.259079
5.65329 -1.70161 -0.264442
5.51877 -1.67439 -0.257464
5.52154 -1.66357 -0.261755
5.5645 -1.67494 -0.262535
5.48228 -1.63735 -0.267195
5.48882 -1.61763 -0.26963
5.49306 -1.60588 -0.269882
5.95719 -1.92145 -0.224383
5.9619 -1.90379 -0.230671
5.86397 -1.87431 -0.221816
5.77046 -1.83782 -0.21818
5.86803 -1.85495 -0.232675
5.72462 -1.81871 -0.222088
5.77428 -1.82059 -0.227098
5.63719 -1.7818 -0.216917
5.68497 -1.78064 -0.228699
5.55259 -1.74608 -0.211891
5.63839 -1.76877 -0.229689
5.64172 -1.75632 -0.23412
5.46927 -1.71557 -0.211176
5.51176 -1.71587 -0.228159
5.55544 -1.72673 -0.227041
5.42827 -1.69845 -0.214854
5.43107 -1.69068 -0.215021
5.47139 -1.69721 -0.227671
5.515 -1.70374 -0.232478
5.93357 -2.01447 -0.186939
5.98953 -2.0141 -0.192055
5.93823 -2.00153 -0.187217
5.99267 -2.0054 -0.192241
5.89912 -1.95473 -0.187605
5.95152 -1.9578 -0.197016
5.90407 -1.93418 -0.196828
5.80962 -1.9015 -0.187603
5.86246 -1.89065 -0.205799
5.90809 -1.91963 -0.201531
5.76907 -1.86487 -0.187678
5.67813 -1.83087 -0.187297
5.77031 -1.85149 -0.200788
5.68091 -1.81666 -0.196003
5.59376 -1.78571 -0.189906
5.51251 -1.74213 -0.191061
5.47132 -1.71613 -0.203112
5.43258 -1.70817 -0.186699
5.47414 -1.7083 -0.203279
5.99401 -2.18755 -0.157435
5.89527 -2.14135 -0.157633
5.94774 -2.15087 -0.162291
5.99892 -2.15994 -0.176083
5.84731 -2.11891 -0.157742
5.85193 -2.1061 -0.158016
5.9039 -2.11055 -0.167156
5.96001 -2.10642 -0.176661
5.75419 -2.07535 -0.158001
5.80833 -2.07121 -0.162766
5.90856 -2.09762 -0.167433
5.96472 -2.09336 -0.17694
5.75722 -2.06696 -0.158181
5.76024 -2.05857 -0.15836
5.81444 -2.05427 -0.163128
5.81943 -2.03703 -0.167849
5.82593 -2.02286 -0.163179
5.87849 -2.02106 -0.174475
5.88203 -2.01577 -0.168733
5.93583 -2.01509 -0.178063
5.88399 -2.00692 -0.173314
5.94049 -2.00216 -0.17834
5.81181 -1.9021 -0.178963
5.59246 -1.80743 -0.166044
5.68321 -1.82329 -0.179058
5.59511 -1.79049 -0.178793
5.51133 -1.75483 -0.178611
5.39093 -1.72045 -0.154147
5.42901 -1.72427 -0.178369
5.43223 -1.71946 -0.173149
5.78472 -2.16709 -0.121545
5.8332 -2.18077 -0.127142
5.94174 -2.17791 -0.148294
5.78667 -2.15087 -0.135818
5.79296 -2.13523 -0.133833
5.8445 -2.13692 -0.144182
5.89752 -2.14197 -0.148757
5.69385 -2.11203 -0.1328
5.74676 -2.10713 -0.142943
5.79666 -2.12384 -0.135527
5.84758 -2.12838 -0.144365
5.69859 -2.09688 -0.135689
5.70477 -2.0742 -0.143299
5.75482 -2.08475 -0.143422
5.65783 -2.06316 -0.140576
5.70841 -2.06301 -0.144963
5.75941 -2.06756 -0.149541
5.76244 -2.05917 -0.149721
5.55057 -1.80244 -0.14519
5.83225 -2.1993 -0.106252
5.78346 -2.18071 -0.108197
5.68888 -2.15364 -0.0960011
5.69503 -2.12333 -0.113749
5.73695 -2.1767 -0.0868174
5.69106 -2.15424 -0.0874385
3.12157 -0.871261 -0.330142
3.16102 -0.872785 -0.332738
3.19881 -0.871246 -0.332198
3.10317 -0.845747 -0.334866
3.13579 -0.856515 -0.337803
3.16443 -0.853279 -0.342735
3.1964 -0.854844 -0.345249
3.22598 -0.859895 -0.344965
2.9393 -0.82137 -0.334648
2.95268 -0.81923 -0.336866
2.90229 -0.782978 -0.336166
2.9271 -0.796622 -0.33917
2.9543 -0.797234 -0.349122
2.86657 -0.75564 -0.335682
2.8967 -0.76256 -0.34355
3.02784 -0.901307 -0.303068
3.04612 -0.906661 -0.302332
3.07684 -0.908491 -0.306041
3.10908 -0.90779 -0.306239
3.14234 -0.904418 -0.302308
3.1583 -0.902288 -0.303819
3.04107 -0.885058 -0.311298
3.07519 -0.886016 -0.315066
3.10575 -0.887498 -0.314909
3.13488 -0.884028 -0.314351
3.16676 -0.881906 -0.312373
3.19867 -0.877979 -0.31199
3.22648 -0.881086 -0.309044
3.25527 -0.883089 -0.318287
2.9298 -0.842364 -0.301697
2.96067 -0.853725 -0.310327
3.07509 -0.858141 -0.322491
3.1009 -0.858463 -0.326317
3.12873 -0.86785 -0.324742
3.16832 -0.864513 -0.326951
3.20044 -0.868179 -0.321827
3.22106 -0.867785 -0.325413
2.8962 -0.816028 -0.309249
2.92329 -0.825783 -0.313359
2.95494 -0.833004 -0.322537
2.97826 -0.833115 -0.327577
2.84882 -0.785188 -0.307898
2.86521 -0.786051 -0.313799
2.89425 -0.798538 -0.321827
2.92247 -0.808258 -0.32934
2.86052 -0.768114 -0.324537
2.88023 -0.778318 -0.322715
3.0771 -0.932781 -0.275633
3.10128 -0.933519 -0.273851
2.96237 -0.903615 -0.270346
3.01571 -0.907479 -0.285307
3.04542 -0.915676 -0.289696
3.07547 -0.921913 -0.288147
3.10934 -0.921822 -0.288136
3.13592 -0.917118 -0.286447
3.16631 -0.913747 -0.28507
2.92844 -0.876896 -0.27445
2.95806 -0.882353 -0.285532
3.12018 -0.89843 -0.299505
3.17132 -0.894657 -0.295577
3.199 -0.892669 -0.294891
3.22747 -0.89362 -0.294198
2.87125 -0.842516 -0.270689
2.90136 -0.849073 -0.281314
2.92519 -0.857907 -0.287688
2.95533 -0.864291 -0.298215
2.84709 -0.814762 -0.275318
2.86787 -0.822592 -0.280252
2.89235 -0.830211 -0.290119
2.9114 -0.834975 -0.294502
2.8106 -0.784245 -0.276482
2.83512 -0.794237 -0.286571
2.85733 -0.802186 -0.29458
2.82303 -0.779463 -0.293452
3.02022 -0.935358 -0.246774
3.04513 -0.938088 -0.249191
3.07336 -0.940663 -0.251791
3.10639 -0.939532 -0.253967
2.92782 -0.902374 -0.243264
2.95744 -0.908482 -0.252843
2.98563 -0.916982 -0.253964
3.01343 -0.921783 -0.262127
3.03823 -0.926815 -0.262792
3.11162 -0.928082 -0.264225
3.14 -0.925463 -0.266026
3.16007 -0.926051 -0.266318
2.87764 -0.871611 -0.249066
2.89828 -0.879915 -0.253862
2.92171 -0.885798 -0.260053
2.94862 -0.895989 -0.263355
2.83831 -0.847207 -0.24452
2.86229 -0.856533 -0.252867
2.89026 -0.862231 -0.265477
2.80704 -0.819653 -0.245043
2.83324 -0.824367 -0.256343
2.86058 -0.83797 -0.262295
2.7803 -0.792047 -0.248589
2.8045 -0.798658 -0.259727
2.8217 -0.804521 -0.265342
2.96012 -0.99326 -0.21284
2.98623 -0.994923 -0.213835
3.00989 -0.99363 -0.215286
3.04538 -0.998428 -0.211462
3.07443 -1.00142 -0.213357
2.93063 -0.971902 -0.211625
2.9559 -0.975767 -0.214371
2.98601 -0.976137 -0.218606
3.01265 -0.972616 -0.219286
3.04176 -0.976968 -0.220132
3.0747 -0.974136 -0.227745
3.10267 -0.973339 -0.230153
3.13277 -0.97376 -0.232889
2.92922 -0.944928 -0.213445
2.95595 -0.945158 -0.219794
2.98343 -0.944384 -0.226312
3.01493 -0.948918 -0.232127
3.04252 -0.951253 -0.235416
3.07242 -0.95071 -0.234728
2.87749 -0.900858 -0.211275
2.90416 -0.916968 -0.2129
2.92334 -0.910673 -0.224371
2.95351 -0.922075 -0.228567
2.98144 -0.925743 -0.238084
2.83253 -0.874174 -0.210132
2.86655 -0.882593 -0.223712
2.8939 -0.892958 -0.22858
2.91403 -0.899467 -0.239934
2.8033 -0.848031 -0.220312
2.83419 -0.859849 -0.229259
2.86047 -0.866368 -0.238586
2.75126 -0.817491 -0.212771
2.77765 -0.821249 -0.225263
2.80335 -0.831317 -0.232854
2.77899 -0.803654 -0.238081
2.89612 -0.992311 -0.182295
2.92693 -0.994958 -0.194647
2.95592 -1.00259 -0.197137
2.98611 -1.00463 -0.199909
3.01461 -1.00691 -0.200406
3.04215 -1.0065 -0.204558
2.84924 -0.967018 -0.186201
2.86837 -0.969502 -0.190651
2.89644 -0.979057 -0.193341
2.92142 -0.975311 -0.205652
3.03568 -0.984096 -0.209814
2.80894 -0.932867 -0.182132
2.83667 -0.944534 -0.186247
2.86473 -0.946185 -0.193921
2.89352 -0.943387 -0.201559
2.92661 -0.952911 -0.207577
2.81229 -0.923579 -0.182331
2.83083 -0.911884 -0.186485
2.86714 -0.91364 -0.199075
2.89024 -0.919235 -0.204565
2.80457 -0.876509 -0.188144
2.83319 -0.884872 -0.197966
2.86398 -0.89404 -0.205509
2.75859 -0.8474 -0.182795
2.77773 -0.850272 -0.193279
2.8044 -0.859785 -0.201782
2.72393 -0.816263 -0.191611
2.76944 -0.837464 -0.20428
2.90084 -0.992765 -0.164795
2.92263 -0.998837 -0.159618
2.95097 -1.00507 -0.170207
2.97846 -1.01321 -0.172005
2.86194 -0.978692 -0.162655
2.89569 -0.987495 -0.161481
2.77474 -0.916287 -0.170095
2.81326 -0.923847 -0.178506
2.75368 -0.893187 -0.163972
2.76878 -0.875857 -0.168122
2.79759 -0.889156 -0.177048
2.74656 -0.854761 -0.167432
2.77491 -0.861724 -0.176515
2.73828 -0.838413 -0.172705
2.86593 -1.00543 -0.130284
2.89575 -0.99832 -0.141945
2.92223 -1.01054 -0.144841
2.8651 -0.983258 -0.141497
2.88656 -0.988394 -0.142825
3.92637 -1.41025 -0.214709
4.01454 -1.42786 -0.218903
4.02071 -1.41267 -0.216734
3.92836 -1.40472 -0.214828
3.93334 -1.3909 -0.215124
3.97602 -1.40306 -0.215894
4.0022 -1.39521 -0.219191
3.93932 -1.37432 -0.215479
3.96723 -1.36396 -0.219806
4.00138 -1.36701 -0.221924
3.88984 -1.32323 -0.215257
3.92784 -1.34239 -0.215691
3.94921 -1.33058 -0.220867
3.97833 -1.32548 -0.222645
3.99747 -1.33781 -0.224685
3.88379 -1.30242 -0.216917
3.91655 -1.3078 -0.218703
3.94498 -1.30144 -0.224578
3.98362 -1.3086 -0.225864
3.7787 -1.27025 -0.21353
3.79517 -1.26991 -0.214926
3.82562 -1.27132 -0.216621
3.86029 -1.27215 -0.217646
3.88681 -1.26153 -0.224238
3.91179 -1.27681 -0.223821
3.94846 -1.27859 -0.225532
3.97446 -1.27461 -0.220455
3.82113 -1.24113 -0.218511
3.85524 -1.2478 -0.220123
3.88305 -1.24375 -0.221618
3.91583 -1.24677 -0.222479
3.93796 -1.24883 -0.219404
3.82371 -1.21512 -0.219328
3.85877 -1.20986 -0.216019
3.88023 -1.22333 -0.219053
3.91199 -1.21823 -0.213477
3.94651 -1.2138 -0.212212
3.78972 -1.18766 -0.219054
3.82493 -1.18 -0.211354
3.85774 -1.1859 -0.213673
3.8803 -1.19227 -0.212256
3.90592 -1.41776 -0.205658
3.94216 -1.43471 -0.208874
3.67525 -1.39563 -0.194751
3.706 -1.39582 -0.196778
3.72943 -1.3963 -0.196528
3.76833 -1.39639 -0.199542
3.78241 -1.38933 -0.19779
3.8227 -1.39428 -0.200804
3.86439 -1.40162 -0.203526
3.87114 -1.38377 -0.202791
3.91474 -1.40583 -0.206946
3.93479 -1.3913 -0.209432
3.70534 -1.36467 -0.202563
3.72783 -1.36412 -0.197662
3.75963 -1.36254 -0.19822
3.798 -1.37524 -0.202094
3.8263 -1.36197 -0.201247
3.89165 -1.3721 -0.207729
3.90195 -1.35483 -0.209271
3.94077 -1.37472 -0.209787
3.69771 -1.33229 -0.197433
3.73818 -1.3354 -0.198276
3.76011 -1.3344 -0.195964
3.78385 -1.32215 -0.201944
3.82105 -1.33536 -0.205164
3.85804 -1.33672 -0.204368
3.88428 -1.32318 -0.207611
3.90589 -1.3439 -0.209505
3.74428 -1.31072 -0.199421
3.75418 -1.30131 -0.19817
3.79286 -1.30926 -0.202332
3.8169 -1.30399 -0.204989
3.8504 -1.31252 -0.208863
3.89419 -1.31547 -0.209838
3.76632 -1.28059 -0.203967
3.79959 -1.27425 -0.208397
3.82476 -1.28576 -0.206998
3.84152 -1.27643 -0.20917
3.95359 -1.2159 -0.206629
3.97726 -1.21403 -0.20714
4.00157 -1.21371 -0.203289
4.02845 -1.21405 -0.199045
3.80846 -1.19187 -0.20981
3.81035 -1.18662 -0.209923
3.88588 -1.17929 -0.204076
5.11321 -1.35289 -0.270553
5.11838 -1.33855 -0.27086
4.91191 -1.40645 -0.242976
4.95313 -1.39519 -0.2442
4.98924 -1.38972 -0.252166
4.88782 -1.37314 -0.24284
4.89276 -1.35942 -0.243133
4.92969 -1.35438 -0.247642
4.99809 -1.36518 -0.252691
5.11508 -1.35341 -0.263168
4.89647 -1.34914 -0.243353
4.93671 -1.33521 -0.247658
4.97549 -1.32482 -0.256442
5.00567 -1.34414 -0.253142
5.03999 -1.34938 -0.261354
5.04636 -1.33172 -0.261732
5.07971 -1.34817 -0.258725
5.12155 -1.33548 -0.263551
4.84255 -1.30334 -0.244201
4.87699 -1.30463 -0.245346
4.91322 -1.29719 -0.251517
4.94531 -1.30551 -0.255792
4.97854 -1.31545 -0.257836
4.98371 -1.30259 -0.256202
4.75548 -1.26364 -0.241367
4.91247 -1.41041 -0.235787
4.75288 -1.3833 -0.212015
4.78156 -1.3953 -0.21578
4.81792 -1.38352 -0.227194
4.88155 -1.39781 -0.232909
4.91621 -1.40004 -0.236009
4.69799 -1.35303 -0.211717
4.73053 -1.35136 -0.215675
4.82158 -1.37338 -0.22741
4.85405 -1.37505 -0.235087
4.88837 -1.37707 -0.235704
4.89332 -1.36335 -0.235998
4.70035 -1.34646 -0.211857
4.73291 -1.34474 -0.215817
4.76524 -1.34065 -0.223694
4.78465 -1.33159 -0.227184
4.80291 -1.32591 -0.230375
4.89826 -1.34963 -0.236291
4.67878 -1.31514 -0.211913
4.68231 -1.30535 -0.212122
4.71522 -1.29998 -0.219609
4.74821 -1.29438 -0.227101
4.77888 -1.29522 -0.234455
4.80708 -1.31378 -0.231325
4.84174 -1.31204 -0.235674
4.5711 -1.26427 -0.210855
4.60251 -1.26228 -0.211382
4.62794 -1.27981 -0.211653
4.6607 -1.2745 -0.215652
4.69152 -1.27201 -0.2229
4.72419 -1.26776 -0.229758
4.75721 -1.26412 -0.234553
4.49261 -1.23266 -0.210061
4.52215 -1.23031 -0.213823
4.726 -1.25959 -0.233987
4.19909 -1.20105 -0.214414
4.2226 -1.21098 -0.211835
4.24598 -1.21427 -0.214446
4.27339 -1.21038 -0.216052
4.29892 -1.2162 -0.21556
4.32712 -1.21236 -0.218173
4.36133 -1.21374 -0.220568
4.39352 -1.21396 -0.21939
4.42219 -1.20825 -0.223782
4.66038 -1.38182 -0.190357
4.68737 -1.39925 -0.189106
4.7185 -1.39898 -0.196285
4.74828 -1.40402 -0.201295
4.78056 -1.40609 -0.205198
4.6083 -1.35225 -0.186939
4.63891 -1.35045 -0.194036
4.66273 -1.37529 -0.190497
4.6997 -1.35351 -0.20495
4.72358 -1.37855 -0.204888
4.52363 -1.33099 -0.182918
4.55713 -1.32326 -0.18348
4.5835 -1.33202 -0.187982
4.6121 -1.33914 -0.190529
4.64125 -1.34397 -0.194174
4.66958 -1.34848 -0.201135
4.70207 -1.34694 -0.205091
4.44874 -1.29205 -0.182789
4.50886 -1.31025 -0.183185
4.53364 -1.30106 -0.186338
4.56494 -1.294 -0.193899
4.60602 -1.30554 -0.199232
4.64805 -1.31734 -0.20474
4.65039 -1.31086 -0.204878
4.18221 -1.26473 -0.191326
4.20937 -1.2768 -0.18418
4.23341 -1.27022 -0.186079
4.27065 -1.26799 -0.183149
4.31155 -1.26856 -0.18379
4.34441 -1.2654 -0.185271
4.37078 -1.26962 -0.183867
4.3995 -1.26783 -0.185886
4.42728 -1.27236 -0.182972
4.45415 -1.27542 -0.185263
4.48211 -1.27767 -0.188621
4.51238 -1.27239 -0.193599
4.54451 -1.26047 -0.200637
4.57275 -1.26473 -0.204317
4.59695 -1.28535 -0.20103
4.62962 -1.28027 -0.205025
4.18691 -1.24872 -0.195503
4.21402 -1.24456 -0.198513
4.24062 -1.24508 -0.193259
4.27042 -1.2463 -0.193662
4.3018 -1.24926 -0.194729
4.33217 -1.24503 -0.193065
4.36998 -1.24355 -0.196286
4.40112 -1.24477 -0.191714
4.43458 -1.2433 -0.194962
4.46365 -1.23838 -0.199828
4.49041 -1.24745 -0.198546
4.51927 -1.2488 -0.199901
4.57504 -1.25838 -0.204453
4.14871 -1.21572 -0.201187
4.1839 -1.21745 -0.201965
4.21962 -1.22621 -0.202506
4.24609 -1.22334 -0.202177
4.27172 -1.22478 -0.203158
4.29914 -1.22411 -0.204384
4.3271 -1.22345 -0.203692
4.35489 -1.22192 -0.204783
4.39092 -1.22517 -0.20422
4.42133 -1.21901 -0.205908
4.46687 -1.22499 -0.205835
4.49648 -1.22688 -0.203786
4.15428 -1.19469 -0.201832
4.17743 -1.19812 -0.205154
5.32403 -2.01556 -0.172133
5.33127 -2.00475 -0.160387
5.24816 -1.97327 -0.172016
5.25391 -1.96646 -0.16038
5.2973 -1.9741 -0.156636
5.13661 -1.92914 -0.164138
5.18255 -1.92651 -0.156843
5.22033 -1.9407 -0.156733
5.14117 -1.91947 -0.160511
5.07131 -1.88455 -0.156841
4.92717 -1.84234 -0.156652
4.21224 -1.57747 -0.150572
4.19406 -1.54698 -0.157114
4.22303 -1.54754 -0.151212
4.17833 -1.51518 -0.163147
4.20881 -1.521 -0.152461
4.23166 -1.52359 -0.151725
4.18712 -1.49168 -0.155929
4.21383 -1.49684 -0.152073
4.67856 -1.44885 -0.155613
4.62253 -1.42433 -0.155804
4.65296 -1.42426 -0.16127
4.68525 -1.41456 -0.176616
4.54088 -1.3886 -0.15597
4.5701 -1.39041 -0.159348
4.59988 -1.39357 -0.162892
4.62997 -1.39075 -0.173182
4.65608 -1.40933 -0.16964
4.463 -1.35452 -0.156263
4.4907 -1.35804 -0.158915
4.51771 -1.3675 -0.156201
4.54723 -1.36591 -0.162983
4.57566 -1.36734 -0.169701
4.60503 -1.36904 -0.176653
4.27601 -1.32434 -0.155766
4.30502 -1.32004 -0.156083
4.38768 -1.32496 -0.153293
4.42614 -1.3348 -0.156422
4.45707 -1.3321 -0.164318
4.49213 -1.33858 -0.164089
4.52444 -1.33677 -0.17242
4.55161 -1.34617 -0.173198
4.5809 -1.3477 -0.176693
4.21622 -1.30486 -0.162549
4.24814 -1.30026 -0.160188
4.28206 -1.29984 -0.166227
4.30901 -1.30578 -0.160491
4.3369 -1.30639 -0.15838
4.3647 -1.30461 -0.159744
4.39262 -1.30395 -0.163153
4.42016 -1.30191 -0.169709
4.44782 -1.302 -0.173041
4.4727 -1.31271 -0.176354
4.52982 -1.31883 -0.176694
4.17996 -1.28188 -0.176902
4.20621 -1.28669 -0.171205
4.23956 -1.27935 -0.173124
4.28328 -1.27883 -0.172976
4.3119 -1.27633 -0.172354
4.34215 -1.28229 -0.171195
4.37097 -1.27634 -0.174374
4.39639 -1.28375 -0.176135
4.42415 -1.28838 -0.173156
4.4537 -1.28322 -0.176621
5.33851 -1.99394 -0.148641
5.34677 -1.9834 -0.132897
5.3031 -1.96723 -0.144905
5.35338 -1.96815 -0.129231
5.22367 -1.93745 -0.149011
5.26897 -1.93869 -0.14291
5.31823 -1.93753 -0.129703
5.15313 -1.89816 -0.145631
5.19812 -1.89981 -0.136159
5.24327 -1.9012 -0.126415
5.28905 -1.89636 -0.126538
5.07683 -1.878 -0.14566
5.1701 -1.86594 -0.127151
4.92903 -1.84285 -0.149321
5.01548 -1.83404 -0.131276
5.08993 -1.85336 -0.131091
5.12956 -1.85943 -0.127097
5.14216 -1.83036 -0.120113
4.90122 -1.81611 -0.146029
4.94136 -1.81885 -0.13666
4.97701 -1.828 -0.135012
4.98875 -1.80495 -0.123214
5.02743 -1.80952 -0.120654
5.14883 -1.81186 -0.120509
4.84184 -1.78168 -0.135726
4.91255 -1.79593 -0.131933
4.95129 -1.79811 -0.128321
4.98922 -1.79982 -0.12824
4.29899 -1.74699 -0.1222
4.74553 -1.74945 -0.132558
4.77996 -1.75441 -0.128905
4.8191 -1.74933 -0.125531
4.85551 -1.75483 -0.121986
4.22541 -1.71283 -0.122956
4.2796 -1.72129 -0.12284
4.30639 -1.72524 -0.124255
4.33409 -1.72956 -0.125838
4.68539 -1.72546 -0.12706
4.75556 -1.72976 -0.122478
4.21832 -1.69428 -0.123398
4.25658 -1.70282 -0.127008
4.27841 -1.69323 -0.129754
4.31301 -1.69719 -0.127085
4.32128 -1.68516 -0.123524
4.5473 -1.69544 -0.126657
4.56046 -1.70586 -0.123037
4.59896 -1.69065 -0.12341
4.65967 -1.70565 -0.1229
4.10885 -1.65751 -0.124054
4.15895 -1.66809 -0.123947
4.18858 -1.65981 -0.127269
4.21504 -1.66228 -0.127844
4.24241 -1.66085 -0.130302
4.27128 -1.6552 -0.136811
4.29774 -1.66428 -0.132672
4.32381 -1.67566 -0.126905
4.53936 -1.67577 -0.123767
4.18813 -1.63484 -0.133482
4.25552 -1.62447 -0.131081
4.28184 -1.63239 -0.128934
4.3106 -1.63529 -0.124682
4.23781 -1.60291 -0.134065
4.26769 -1.60221 -0.128103
4.3023 -1.60536 -0.125328
4.21566 -1.57513 -0.141391
4.24576 -1.57271 -0.135336
4.27488 -1.57315 -0.129062
4.30087 -1.58284 -0.125812
4.22518 -1.54813 -0.142738
4.24588 -1.54138 -0.136599
4.27781 -1.54499 -0.125952
4.3076 -1.54257 -0.120389
4.32116 -1.5314 -0.12064
4.21402 -1.50343 -0.142759
4.24023 -1.51229 -0.135871
4.27002 -1.51437 -0.125042
4.29911 -1.51317 -0.120997
4.32744 -1.51301 -0.122288
4.35774 -1.50814 -0.122667
4.3864 -1.50939 -0.120931
4.63274 -1.51053 -0.120509
4.73381 -1.50261 -0.123821
4.22333 -1.48031 -0.13976
4.25111 -1.48665 -0.130537
4.28149 -1.48321 -0.124865
4.31077 -1.48083 -0.121689
4.33356 -1.49456 -0.124565
4.36645 -1.48522 -0.121579
4.39532 -1.48465 -0.12146
4.54933 -1.47606 -0.121368
4.61464 -1.47204 -0.121465
4.646 -1.47113 -0.124707
4.67681 -1.47727 -0.1246
4.70565 -1.48421 -0.130503
4.21907 -1.45487 -0.13912
4.23755 -1.4548 -0.131299
4.27499 -1.45587 -0.127668
4.29927 -1.45166 -0.124479
4.32315 -1.44647 -0.122425
4.3753 -1.46064 -0.122105
4.40126 -1.4549 -0.122119
4.43779 -1.44679 -0.125493
4.46521 -1.45572 -0.122041
4.49785 -1.44524 -0.12536
4.52514 -1.45756 -0.121853
4.55581 -1.45606 -0.124425
4.58311 -1.45186 -0.127436
4.61794 -1.45513 -0.131822
4.64797 -1.45613 -0.137328
4.67739 -1.46153 -0.14318
4.18924 -1.42624 -0.13957
4.21551 -1.4302 -0.134969
4.24607 -1.42399 -0.13223
4.27459 -1.42354 -0.12925
4.30258 -1.42527 -0.125331
4.3308 -1.42525 -0.122879
4.36106 -1.41827 -0.126199
4.38637 -1.42993 -0.122763
4.4171 -1.41928 -0.129216
4.44476 -1.42552 -0.128437
4.47499 -1.4226 -0.130479
4.50789 -1.43298 -0.127585
4.53918 -1.43115 -0.133853
4.56331 -1.42369 -0.140015
4.59338 -1.42599 -0.143668
4.62422 -1.42479 -0.149131
4.18784 -1.40177 -0.140442
4.20358 -1.39372 -0.130908
4.30962 -1.38938 -0.127503
4.34014 -1.3945 -0.129771
4.36716 -1.4003 -0.127927
4.39725 -1.3924 -0.133039
4.42693 -1.38461 -0.139492
4.45299 -1.39966 -0.132901
4.48341 -1.39382 -0.138089
4.51192 -1.39364 -0.142674
4.53994 -1.39881 -0.145959
4.568 -1.40389 -0.149202
4.36565 -1.36353 -0.137623
4.40702 -1.35795 -0.143249
4.43202 -1.36902 -0.141733
4.46095 -1.36764 -0.146384
4.49028 -1.36619 -0.149722
4.24865 -1.33294 -0.143886
4.27528 -1.33394 -0.145776
4.30336 -1.33275 -0.145349
4.32967 -1.33751 -0.143468
4.35711 -1.33835 -0.14266
4.38569 -1.33582 -0.146159
4.43677 -1.34993 -0.149769
4.2187 -1.31521 -0.149526
4.28078 -1.31584 -0.149833
4.3103 -1.31492 -0.143884
5.35083 -1.98453 -0.116903
5.35783 -1.96511 -0.117318
5.29105 -1.89691 -0.118672
5.17205 -1.86648 -0.119472
5.21406 -1.86907 -0.119425
5.14167 -1.83565 -0.114929
5.21812 -1.85779 -0.119667
5.22418 -1.84458 -0.115312
5.02932 -1.81005 -0.113211
5.06793 -1.81592 -0.113112
5.15076 -1.8124 -0.112891
5.00037 -1.78318 -0.110159
5.03902 -1.78888 -0.106233
5.04293 -1.77804 -0.106465
4.27308 -1.75482 -0.102206
4.30119 -1.75372 -0.10553
4.32977 -1.75575 -0.106954
4.85733 -1.75533 -0.114819
4.89332 -1.75649 -0.114549
4.93649 -1.75203 -0.103815
5.04944 -1.75996 -0.106852
4.22158 -1.72732 -0.106735
4.25187 -1.72366 -0.116524
4.30896 -1.72425 -0.116331
4.33958 -1.72424 -0.113155
4.69395 -1.7106 -0.115878
4.76525 -1.71371 -0.108819
4.80107 -1.71499 -0.105068
4.83787 -1.71652 -0.101371
4.87819 -1.71133 -0.097868
4.90365 -1.73621 -0.10417
4.94655 -1.72917 -0.0977664
4.9518 -1.71612 -0.0961084
4.17913 -1.69559 -0.114194
4.21154 -1.70678 -0.114874
4.23137 -1.70114 -0.116973
4.31732 -1.70106 -0.116827
4.34047 -1.69716 -0.115099
4.35366 -1.68569 -0.11334
4.53754 -1.68596 -0.116885
4.60068 -1.69112 -0.116643
4.66949 -1.68638 -0.113035
4.70296 -1.69095 -0.109398
4.76771 -1.7069 -0.108965
4.77774 -1.68721 -0.0988851
4.80797 -1.69993 -0.100103
4.88393 -1.69633 -0.0969961
4.12877 -1.6675 -0.115321
4.16051 -1.66852 -0.117823
4.30556 -1.65416 -0.117963
4.32958 -1.66706 -0.117555
4.3609 -1.6651 -0.114421
4.41994 -1.66645 -0.11414
4.51839 -1.65303 -0.114322
4.54105 -1.67623 -0.117094
4.57831 -1.66415 -0.113865
4.61069 -1.66859 -0.110369
4.64673 -1.66298 -0.106945
4.67898 -1.67068 -0.099669
4.68138 -1.66401 -0.0998118
4.71494 -1.66842 -0.0960804
4.75224 -1.66276 -0.0961054
4.03035 -1.6267 -0.109109
4.06647 -1.6407 -0.112568
4.3122 -1.63573 -0.118357
4.34072 -1.63614 -0.118217
4.37099 -1.63709 -0.11502
4.40443 -1.63185 -0.108608
4.52304 -1.64015 -0.114597
4.5449 -1.63152 -0.104801
4.58061 -1.63769 -0.102221
4.62392 -1.63973 -0.100852
4.30626 -1.60087 -0.117045
4.33937 -1.61338 -0.118748
4.36811 -1.61061 -0.117498
4.39241 -1.60849 -0.111325
4.41234 -1.60992 -0.109078
4.45442 -1.60515 -0.107873
4.5046 -1.60782 -0.108689
4.54041 -1.60551 -0.0978487
4.57936 -1.59059 -0.0922726
4.28163 -1.56168 -0.119959
4.30656 -1.57435 -0.116583
4.33786 -1.57189 -0.110251
4.37069 -1.56283 -0.107074
4.39354 -1.58258 -0.10579
4.42589 -1.57232 -0.109883
4.4564 -1.57365 -0.10532
4.48679 -1.57789 -0.101325
4.51831 -1.57997 -0.0961411
4.5498 -1.58384 -0.0926402
4.31616 -1.55015 -0.113964
4.34069 -1.54555 -0.111887
4.36577 -1.54168 -0.108521
4.40174 -1.53983 -0.10592
4.4119 -1.53432 -0.103357
4.56836 -1.53234 -0.093743
4.59954 -1.53202 -0.0968586
4.79895 -1.53316 -0.0988797
4.81936 -1.54722 -0.0914631
4.83322 -1.53778 -0.0962497
4.32825 -1.51659 -0.114683
4.35668 -1.51967 -0.111369
4.3883 -1.5118 -0.110992
4.41748 -1.51696 -0.106166
4.45031 -1.50787 -0.106968
4.47878 -1.51576 -0.101157
4.51043 -1.51547 -0.0985815
4.54154 -1.51398 -0.0995253
4.5725 -1.51426 -0.102638
4.60308 -1.51874 -0.101585
4.63562 -1.51292 -0.107039
4.67216 -1.50851 -0.100283
4.7022 -1.51698 -0.0998647
4.73478 -1.51672 -0.101823
4.76748 -1.51835 -0.104813
4.77004 -1.5102 -0.106368
4.3149 -1.4742 -0.115598
4.39659 -1.48704 -0.113782
4.42777 -1.48304 -0.113839
4.45732 -1.48661 -0.109785
4.48761 -1.48749 -0.106625
4.51962 -1.48048 -0.111571
4.54838 -1.48634 -0.11129
4.58061 -1.48381 -0.113532
4.61513 -1.4793 -0.110203
4.64359 -1.4908 -0.107512
4.67432 -1.49465 -0.110714
4.70637 -1.49751 -0.110487
4.73882 -1.49667 -0.113671
4.31818 -1.4651 -0.115793
4.32364 -1.44994 -0.116118
4.40584 -1.46037 -0.115624
4.42973 -1.46207 -0.113012
4.46537 -1.46128 -0.114192
4.48612 -1.45778 -0.115429
4.55676 -1.46054 -0.115128
4.58736 -1.4668 -0.111691
4.61867 -1.46603 -0.11493
4.33239 -1.42569 -0.116637
4.3022 -1.76601 -0.0857752
4.75401 -1.66324 -0.0891442
4.79023 -1.6607 -0.0889512
4.58106 -1.59106 -0.0855988
4.61271 -1.5947 -0.0818053
4.64318 -1.60288 -0.0802443
4.86173 -1.56581 -0.0835817
4.89525 -1.5766 -0.0795039
4.59975 -1.5392 -0.0867093
4.83373 -1.54541 -0.0844182
4.86544 -1.55552 -0.0838023
4.5117 -1.52018 -0.0878729
4.5404 -1.52632 -0.0874314
4.57237 -1.52636 -0.0872529
4.39398 -2.07396 -0.121906
4.425 -2.07392 -0.125221
4.34207 -2.04095 -0.122419
4.37182 -2.04434 -0.125798
4.40015 -2.05428 -0.125659
4.33297 -2.02343 -0.122794
4.37614 -2.03492 -0.122691
4.26998 -1.98743 -0.12354
4.3002 -1.98361 -0.126802
4.325 -2.00278 -0.123237
4.25251 -1.95342 -0.124245
4.27717 -1.96415 -0.128333
4.30379 -1.97212 -0.128993
4.39057 -2.10152 -0.0979934
4.41816 -2.11007 -0.102306
4.44703 -2.11483 -0.110951
4.36726 -2.07494 -0.10198
4.39568 -2.07443 -0.115233
4.42168 -2.09094 -0.114792
4.34087 -2.05702 -0.105645
4.36822 -2.06459 -0.112129
4.39801 -2.06794 -0.115372
4.2762 -2.03146 -0.0967377
4.29975 -2.02928 -0.105299
4.34605 -2.03502 -0.115974
4.21652 -1.99389 -0.0936084
4.24189 -2.00524 -0.0943415
4.2709 -1.99113 -0.11541
4.29471 -2.00637 -0.116589
4.32666 -2.00324 -0.116699
4.19598 -1.96704 -0.0998971
4.22231 -1.96716 -0.107952
4.27614 -1.97535 -0.117358
4.14984 -1.93864 -0.0973444
4.18346 -1.93335 -0.112022
4.21459 -1.94387 -0.114873
4.10245 -1.89399 -0.103815
4.11039 -1.89823 -0.0944706
4.15458 -1.91662 -0.109243
4.18288 -1.91265 -0.115615
4.0409 -1.86477 -0.0954661
4.06483 -1.86947 -0.098225
4.08584 -1.8899 -0.0947391
4.12004 -1.87983 -0.108699
4.00028 -1.83823 -0.0904486
4.03827 -1.84542 -0.100022
4.07131 -1.84712 -0.104345
4.09804 -1.84421 -0.111004
3.88632 -1.80393 -0.097949
3.9108 -1.80562 -0.0948318
3.94289 -1.8097 -0.0915279
3.97742 -1.81656 -0.0970974
4.00323 -1.8231 -0.0997178
4.03162 -1.81299 -0.105926
3.82251 -1.7771 -0.105377
3.85544 -1.78739 -0.100143
3.89249 -1.78619 -0.0991554
3.91794 -1.78581 -0.0952561
3.94203 -1.78259 -0.0999458
3.97786 -1.78446 -0.105213
3.82943 -1.75317 -0.105085
3.85408 -1.75887 -0.099048
3.88718 -1.76345 -0.104634
4.34562 -2.15037 -0.0805117
4.35143 -2.13427 -0.0808563
4.26791 -2.1134 -0.0721526
4.30031 -2.10419 -0.0786343
4.35607 -2.1214 -0.0811323
4.38727 -2.11843 -0.0876361
4.21801 -2.0861 -0.0737702
4.25126 -2.07182 -0.0798654
4.27473 -2.09448 -0.0725576
4.30717 -2.08514 -0.079042
4.33859 -2.07865 -0.0854654
4.22545 -2.06572 -0.0738507
4.25549 -2.06059 -0.0794618
4.2859 -2.05595 -0.0831081
4.29045 -2.04334 -0.0833781
4.18013 -2.03156 -0.0719922
4.20729 -2.031 -0.0779837
4.23617 -2.03104 -0.080992
4.26513 -2.03087 -0.0839628
4.16165 -2.00074 -0.0760843
4.1888 -2.00018 -0.0821367
4.21682 -1.99964 -0.085011
4.12125 -1.95901 -0.0744196
4.1486 -1.95497 -0.0803733
4.06649 -1.92802 -0.0702268
4.08134 -1.92136 -0.069606
4.12523 -1.94222 -0.0822114
4.15029 -1.94543 -0.0868109
4.01418 -1.89162 -0.0652342
4.03645 -1.89584 -0.0706506
4.06065 -1.89755 -0.0763601
4.09271 -1.90108 -0.0883418
3.94896 -1.86261 -0.0608774
3.98036 -1.87669 -0.0659632
4.00385 -1.87109 -0.0723979
4.03486 -1.86812 -0.0824657
3.90771 -1.83901 -0.0621071
3.97803 -1.83409 -0.0848489
3.99628 -1.85626 -0.0811173
3.85677 -1.80789 -0.0724402
3.88897 -1.81535 -0.0735115
3.912 -1.81356 -0.0801117
3.94085 -1.81981 -0.0812637
3.8249 -1.79313 -0.0758079
3.85007 -1.7941 -0.0845553
3.89467 -1.78974 -0.0866823
3.91701 -1.86427 -0.0534837
3.99113 -1.88673 -0.0595925
3.88518 -1.84075 -0.0537711
3.91136 -1.84542 -0.0550992
3.85432 -1.81939 -0.0559899
3.40613 -1.32121 -0.246724
3.42878 -1.32958 -0.242955
3.31734 -1.29099 -0.241581
3.34763 -1.29778 -0.242506
3.37697 -1.29645 -0.247369
3.40646 -1.3054 -0.248267
3.43715 -1.30623 -0.252365
3.27869 -1.26506 -0.240535
3.31478 -1.27543 -0.241611
3.34533 -1.27959 -0.24504
3.38108 -1.27636 -0.252015
3.40908 -1.27642 -0.257052
3.43043 -1.27313 -0.259591
3.39754 -1.41826 -0.213237
3.35647 -1.38959 -0.212642
3.37261 -1.39683 -0.213488
3.40278 -1.39342 -0.216554
3.33558 -1.35356 -0.212475
3.36927 -1.36436 -0.217627
3.40923 -1.36175 -0.222304
3.32719 -1.33131 -0.212582
3.34925 -1.32907 -0.22521
3.37708 -1.33806 -0.226142
3.40928 -1.33823 -0.236771
3.42794 -1.33728 -0.235874
3.26094 -1.29355 -0.211537
3.28664 -1.30105 -0.222022
3.3126 -1.30369 -0.228756
3.34336 -1.30386 -0.235048
3.37147 -1.3143 -0.236663
3.39192 -1.31797 -0.238795
3.23664 -1.27592 -0.211278
3.26016 -1.27475 -0.229769
3.28569 -1.27526 -0.234961
3.31256 -1.27832 -0.235915
3.35222 -1.28876 -0.237893
3.19733 -1.23977 -0.216781
3.22544 -1.25383 -0.22517
3.14533 -1.20153 -0.210035
3.16052 -1.21086 -0.211739
3.20207 -1.22513 -0.221443
3.28954 -1.41057 -0.184294
3.26518 -1.39169 -0.181967
3.2893 -1.40118 -0.187614
3.31333 -1.40601 -0.193799
3.34134 -1.4029 -0.204317
3.37199 -1.39596 -0.207854
3.40312 -1.40662 -0.208557
3.26198 -1.35323 -0.184719
3.28393 -1.3537 -0.192249
3.30593 -1.35401 -0.199782
3.3368 -1.3539 -0.207662
3.28554 -1.32422 -0.197551
3.3068 -1.34214 -0.200428
3.33933 -1.34689 -0.207812
3.25292 -1.30428 -0.189395
3.27759 -1.30629 -0.202235
3.30153 -1.3152 -0.20731
3.22307 -1.27545 -0.194276
3.16976 -1.24451 -0.185784
3.19375 -1.25442 -0.196743
3.21354 -1.25866 -0.206256
3.14113 -1.21591 -0.194817
3.15683 -1.22463 -0.200071
3.08682 -1.18068 -0.185124
3.10128 -1.17637 -0.195771
3.12171 -1.19678 -0.198344
3.05527 -1.1518 -0.183815
3.062 -1.14506 -0.184308
3.19611 -1.39157 -0.156897
3.22459 -1.39022 -0.165829
3.25515 -1.40403 -0.172099
3.27638 -1.40702 -0.176933
3.19966 -1.36188 -0.163507
3.22716 -1.35222 -0.172746
3.20698 -1.34964 -0.165605
3.23175 -1.34599 -0.17368
3.19308 -1.30501 -0.165492
3.22514 -1.30689 -0.175032
3.16928 -1.26728 -0.163317
3.18797 -1.27747 -0.166709
3.21227 -1.28525 -0.175923
3.13594 -1.23647 -0.16368
3.17814 -1.25349 -0.178159
3.10215 -1.20521 -0.171935
3.05602 -1.17463 -0.16693
3.08318 -1.19276 -0.168111
3.09938 -1.19688 -0.175663
3.02004 -1.15051 -0.160706
3.05421 -1.15916 -0.177939
2.96558 -1.11541 -0.154499
2.99108 -1.12667 -0.160787
3.01965 -1.12441 -0.171849
2.96171 -1.1011 -0.158224
2.98403 -1.0943 -0.163448
2.93575 -1.06557 -0.153235
2.9432 -1.07227 -0.154941
2.94714 -1.04234 -0.153762
3.19451 -1.40442 -0.147578
3.01653 -1.17195 -0.126561
2.99258 -1.14804 -0.13052
3.01801 -1.16785 -0.126649
2.93605 -1.11248 -0.134007
2.96363 -1.12561 -0.137266
2.9865 -1.1371 -0.141856
2.8993 -1.08523 -0.13269
2.92452 -1.0981 -0.136846
2.9457 -1.1098 -0.146351
2.92529 -1.07241 -0.146819
2.94176 -1.05204 -0.149466
2.90429 -1.03389 -0.14189
2.91972 -1.02175 -0.141971
2.94674 -1.03822 -0.149762
2.94917 -1.1414 -0.0924603
2.98943 -1.15863 -0.111783
2.93151 -1.11681 -0.112049
2.95094 -1.13113 -0.105815
2.89757 -1.09837 -0.101085
2.91308 -1.12204 -0.0775962
2.90498 -1.10771 -0.0820111
5.95611 -3.12531 0.0578263
5.95765 -3.13075 0.0704501
5.8547 -3.07411 0.0769399
5.95732 -3.16076 0.108614
5.90324 -3.12617 0.0982981
5.85365 -3.09842 0.105062
5.9065 -3.11714 0.0981045
5.80493 -3.07116 0.111707
5.85498 -3.08403 0.0909537
5.95485 -3.19185 0.140548
5.958 -3.17098 0.124467
5.84965 -3.1416 0.14739
5.85269 -3.12604 0.137856
5.8007 -3.10411 0.139754
5.85582 -3.11378 0.132994
5.99895 -3.27296 0.176179
5.95229 -3.21957 0.167719
5.89787 -3.1843 0.155276
5.95364 -3.20489 0.153334
5.99123 -3.31641 0.205526
5.81529 -3.27973 0.205551
5.87711 -3.27792 0.203725
5.93712 -3.28227 0.195639
5.9409 -3.27662 0.201772
5.99663 -3.2892 0.189157
5.82336 -3.25736 0.205072
5.87918 -3.26856 0.198881
5.88293 -3.26297 0.204953
5.94299 -3.26717 0.19688
5.8931 -3.22273 0.18861
5.92712 -3.33302 0.22643
5.98917 -3.33864 0.227313
5.87324 -3.30666 0.227563
5.9337 -3.31477 0.22604
5.81675 -3.28997 0.224172
5.87576 -3.29245 0.21797
5.88065 -3.2789 0.21768
5.9367 -3.29553 0.211557
5.8257 -3.258 0.214287
5.8839 -3.26986 0.217486
5.97744 -3.39872 0.264119
5.92441 -3.36237 0.2552
5.98057 -3.3827 0.254304
5.87173 -3.33605 0.260704
5.92838 -3.34591 0.247812
5.82053 -3.30086 0.252007
5.87307 -3.32152 0.246459
5.93399 -3.32488 0.240327
5.82303 -3.28679 0.242505
5.9217 -3.39172 0.28397
5.97985 -3.39939 0.273605
5.86741 -3.36963 0.289289
5.81493 -3.34852 0.29443
5.87201 -3.34606 0.274852
5.86725 -3.38449 0.308185
5.76642 -3.33348 0.31783
5.71507 -3.31574 0.323575
5.76961 -3.32461 0.31764
4.2021 -1.83743 -0.145459
4.1846 -1.81157 -0.139541
4.08965 -1.77235 -0.136757
4.13691 -1.79365 -0.136712
4.14928 -1.78078 -0.133928
4.17568 -1.77198 -0.124876
4.03575 -1.74634 -0.131278
4.06914 -1.75029 -0.131574
4.09178 -1.76644 -0.136883
4.12541 -1.75507 -0.129947
4.15406 -1.7556 -0.125218
4.17785 -1.76595 -0.125005
3.97922 -1.71709 -0.125242
4.00668 -1.72472 -0.125718
4.03091 -1.72549 -0.128643
4.06832 -1.7334 -0.13335
4.09493 -1.72812 -0.128579
4.12189 -1.7328 -0.122488
3.91797 -1.69819 -0.123354
3.94393 -1.69338 -0.123425
3.98797 -1.70641 -0.126077
4.0073 -1.69731 -0.129257
4.02094 -1.68745 -0.123552
4.06673 -1.70393 -0.123264
4.09085 -1.70744 -0.122984
3.86236 -1.65394 -0.12425
3.90419 -1.66924 -0.123937
3.94904 -1.67923 -0.123728
3.9782 -1.66559 -0.123918
3.75972 -1.62405 -0.124908
3.80343 -1.62792 -0.124958
3.86635 -1.64289 -0.124487
3.68602 -1.59297 -0.122061
3.70733 -1.59128 -0.122913
3.72789 -1.59732 -0.120188
3.76287 -1.60481 -0.123113
3.80735 -1.61706 -0.125191
3.81126 -1.60619 -0.125424
3.64702 -1.57042 -0.122746
3.68358 -1.58454 -0.123151
3.70696 -1.57587 -0.124002
3.73471 -1.57366 -0.126836
3.76085 -1.57921 -0.122349
3.79666 -1.587 -0.120111
3.4401 -1.54266 -0.124872
3.45107 -1.53594 -0.123514
3.49885 -1.53446 -0.121904
3.55775 -1.53639 -0.123362
3.58948 -1.54481 -0.123725
3.61626 -1.54504 -0.128924
3.64707 -1.55115 -0.12912
3.67767 -1.54464 -0.129759
3.70182 -1.54634 -0.126658
3.73507 -1.54479 -0.123975
3.49532 -1.51866 -0.131349
3.52311 -1.51506 -0.132308
3.55568 -1.51666 -0.131174
3.58272 -1.51531 -0.132551
3.61409 -1.51654 -0.134108
3.63299 -1.50658 -0.129588
3.67451 -1.51504 -0.128188
3.71448 -1.51289 -0.125215
3.73941 -1.50435 -0.12206
4.15964 -1.74726 -0.116166
4.18643 -1.75176 -0.112922
3.82424 -1.72547 -0.100682
3.86581 -1.72761 -0.0980842
3.88385 -1.71469 -0.0999852
4.12321 -1.72113 -0.116625
4.15122 -1.721 -0.1118
4.18397 -1.72116 -0.107102
3.73737 -1.69463 -0.112356
3.7635 -1.69315 -0.107853
3.79275 -1.70119 -0.102161
3.82697 -1.6954 -0.0987518
3.85546 -1.68851 -0.10362
3.89627 -1.70089 -0.1108
3.91944 -1.6986 -0.11756
4.04962 -1.68282 -0.117629
4.07533 -1.68705 -0.114624
4.09835 -1.69444 -0.1132
4.11848 -1.70883 -0.116853
4.15056 -1.69848 -0.114124
3.70605 -1.66428 -0.110566
3.74608 -1.67047 -0.112874
3.76837 -1.66457 -0.105919
3.79608 -1.66024 -0.108908
3.81871 -1.6648 -0.107616
3.85271 -1.66209 -0.115013
3.87978 -1.67426 -0.118007
3.90565 -1.66965 -0.118177
3.93465 -1.65639 -0.118463
3.97969 -1.666 -0.118054
4.00645 -1.66425 -0.115197
4.03435 -1.65945 -0.112297
3.65436 -1.63663 -0.103265
3.6785 -1.62361 -0.108811
3.71466 -1.64038 -0.111078
3.73709 -1.63214 -0.116477
3.76987 -1.64108 -0.115522
3.7952 -1.63092 -0.116002
3.82253 -1.64379 -0.114624
3.85678 -1.63839 -0.11732
3.89454 -1.63554 -0.115978
3.92223 -1.62809 -0.113316
3.94903 -1.62323 -0.110496
3.96452 -1.64304 -0.115772
3.9969 -1.63543 -0.109505
3.61791 -1.60254 -0.105031
3.64419 -1.60469 -0.106687
3.67248 -1.60181 -0.111299
3.70178 -1.61297 -0.114308
3.73251 -1.61469 -0.118333
3.76693 -1.60832 -0.119725
3.80975 -1.61473 -0.119656
3.8144 -1.60492 -0.115877
3.85157 -1.60634 -0.114951
3.88291 -1.60795 -0.111028
3.91801 -1.60845 -0.110861
3.55623 -1.57031 -0.107946
3.57849 -1.57297 -0.109913
3.61782 -1.58122 -0.112611
3.63913 -1.57854 -0.114161
3.69037 -1.58648 -0.115004
3.76377 -1.56025 -0.115271
3.7913 -1.56778 -0.111965
3.82763 -1.57487 -0.107943
3.44042 -1.55462 -0.114202
3.46499 -1.54638 -0.112633
3.49782 -1.54479 -0.112048
3.52664 -1.54233 -0.112611
3.55152 -1.54452 -0.11432
3.58694 -1.55688 -0.114951
3.60115 -1.54968 -0.116113
3.74651 -1.54991 -0.115744
3.76634 -1.54341 -0.115674
3.79226 -1.54446 -0.112811
3.46194 -1.52828 -0.11698
3.49254 -1.52993 -0.116941
3.51223 -1.52731 -0.116921
3.71687 -1.51297 -0.116577
3.73443 -1.51589 -0.114078
3.76788 -1.51556 -0.116372
3.46674 -1.33381 -0.245975
3.49645 -1.3335 -0.245686
3.51912 -1.32842 -0.244177
3.46596 -1.31044 -0.254131
3.49039 -1.30218 -0.255936
3.52639 -1.30874 -0.251095
3.55139 -1.29832 -0.246567
3.58301 -1.29132 -0.240035
3.55684 -1.27687 -0.253383
3.58542 -1.27115 -0.246656
3.60966 -1.26695 -0.243572
3.63133 -1.26328 -0.241773
3.58349 -1.24604 -0.254823
3.61128 -1.24525 -0.249509
3.64147 -1.24586 -0.246834
3.6663 -1.23337 -0.244515
3.74237 -1.23502 -0.240032
3.45931 -1.41301 -0.213185
3.48436 -1.43008 -0.210153
3.43066 -1.39336 -0.215653
3.46836 -1.39514 -0.214731
3.49225 -1.38484 -0.214447
3.5192 -1.38499 -0.211578
3.43915 -1.36935 -0.223043
3.4653 -1.36505 -0.228454
3.49215 -1.36249 -0.224218
3.52568 -1.36245 -0.217949
3.54568 -1.36249 -0.213317
3.587 -1.35186 -0.213343
3.46272 -1.34481 -0.235884
3.50299 -1.34576 -0.234901
3.52986 -1.33726 -0.229323
3.55352 -1.3347 -0.221687
3.58256 -1.3318 -0.217277
3.61724 -1.3205 -0.217175
3.53786 -1.31509 -0.236466
3.55988 -1.3065 -0.232553
3.58414 -1.30629 -0.226404
3.61374 -1.30104 -0.222495
3.64448 -1.30334 -0.21313
3.66775 -1.29569 -0.210814
3.56748 -1.28285 -0.23973
3.58972 -1.27668 -0.23521
3.61708 -1.27996 -0.229829
3.64287 -1.27314 -0.221877
3.6755 -1.27244 -0.219016
3.70082 -1.27077 -0.214965
3.73886 -1.26545 -0.212693
3.61435 -1.25996 -0.235973
3.65029 -1.25408 -0.233277
3.67652 -1.24422 -0.231974
3.70338 -1.24813 -0.225438
3.73279 -1.24295 -0.222589
3.68683 -1.22401 -0.236502
3.92493 -1.50026 -0.184608
3.94722 -1.50378 -0.186902
3.97285 -1.51086 -0.189916
3.46183 -1.47254 -0.187279
3.82007 -1.4747 -0.183587
3.86434 -1.47661 -0.184198
3.49464 -1.45103 -0.190547
3.524 -1.44472 -0.1831
3.55024 -1.44333 -0.1803
3.70395 -1.44077 -0.182602
3.72839 -1.44524 -0.182854
3.76385 -1.4496 -0.185218
3.79845 -1.45146 -0.188369
3.82574 -1.45251 -0.19239
3.46546 -1.42454 -0.206255
