# .PCD v0.7 - Point Cloud Data file format
VERSION 0.7
FIELDS x y z
SIZE 4 4 4
TYPE F F F
COUNT 1 1 1
WIDTH 1762
HEIGHT 1
VIEWPOINT 0 0 0 1 0 0 0
POINTS 1762
DATA ascii
3.52462 0.495589 -0.373026
3.55648 0.494843 -0.373912
3.58577 0.49404 -0.373595
3.61741 0.494408 -0.373898
3.6473 0.496245 -0.375733
3.67863 0.497195 -0.378376
3.704 0.495798 -0.380743
3.73698 0.497294 -0.383197
3.76476 0.501923 -0.381602
3.79448 0.502149 -0.381948
3.8291 0.498621 -0.382691
3.85341 0.498293 -0.381591
3.88475 0.499655 -0.379077
3.91547 0.493127 -0.382253
3.94515 0.498877 -0.381071
3.96866 0.499052 -0.382545
4.00518 0.500713 -0.386526
4.03017 0.502973 -0.38428
4.05497 0.509073 -0.387583
2.75351 0.523076 -0.363935
2.77414 0.525552 -0.36685
2.80287 0.524271 -0.374102
2.83261 0.525737 -0.37908
2.8656 0.524976 -0.380318
2.89631 0.525185 -0.378317
2.92405 0.525257 -0.373774
2.9536 0.524441 -0.366678
2.9843 0.524413 -0.362018
3.01619 0.523591 -0.363955
3.04555 0.525635 -0.366554
3.07391 0.524825 -0.37025
3.10626 0.523905 -0.376616
3.13798 0.524214 -0.380872
3.16751 0.525607 -0.382128
3.19819 0.526796 -0.384816
3.22568 0.52463 -0.385079
3.25309 0.525289 -0.385745
3.34413 0.531923 -0.382317
3.37583 0.528785 -0.382761
3.4058 0.528611 -0.379411
3.43428 0.524379 -0.376855
3.46196 0.521458 -0.371235
3.49586 0.524411 -0.365295
3.52337 0.522379 -0.363876
3.55359 0.517641 -0.362162
3.58488 0.519748 -0.363308
3.61664 0.52046 -0.364325
3.64271 0.521367 -0.363748
3.67637 0.522613 -0.366508
3.70929 0.525442 -0.367386
3.73495 0.522978 -0.369194
3.76492 0.524919 -0.366922
3.79393 0.523948 -0.366066
3.82748 0.515765 -0.370225
3.85732 0.520053 -0.363289
3.88471 0.516161 -0.36786
3.9218 0.516599 -0.37098
3.94618 0.520974 -0.366982
3.97837 0.530224 -0.367318
4.0069 0.524383 -0.375589
4.03024 0.519444 -0.381614
4.0649 0.527469 -0.38317
4.09153 0.53006 -0.383347
4.12315 0.531329 -0.386871
4.1716 0.531651 -0.38991
2.77725 0.552434 -0.364487
2.80496 0.554743 -0.369225
2.83606 0.555195 -0.374326
2.86622 0.554674 -0.375169
2.89663 0.554869 -0.375188
2.92625 0.554627 -0.370564
2.95133 0.554788 -0.363786
2.98907 0.542429 -0.360712
3.02102 0.548575 -0.36214
3.0448 0.555726 -0.363497
3.07359 0.555157 -0.366922
3.10763 0.55507 -0.375077
3.13226 0.554327 -0.376246
3.16358 0.554907 -0.380329
3.19418 0.555965 -0.381994
3.22336 0.553822 -0.382271
3.37332 0.544795 -0.36648
3.40482 0.541851 -0.367472
3.44363 0.542036 -0.360795
3.52796 0.542043 -0.362445
3.63113 0.542599 -0.360411
3.67216 0.545468 -0.363101
3.71255 0.541823 -0.36351
3.7283 0.544803 -0.362302
4.00403 0.54172 -0.364457
4.02233 0.54266 -0.363246
4.05461 0.542737 -0.369994
4.09164 0.548179 -0.370691
4.12159 0.549071 -0.372358
4.16226 0.550021 -0.380449
4.19082 0.560041 -0.369513
4.22017 0.562104 -0.373241
4.24577 0.557029 -0.382991
4.26338 0.564961 -0.377001
4.30775 0.563852 -0.382255
4.32303 0.566032 -0.377734
4.36339 0.568807 -0.38273
4.46863 0.569995 -0.38592
2.80949 0.574131 -0.361585
2.83522 0.577652 -0.363509
2.86428 0.577926 -0.365077
2.89521 0.580836 -0.365186
2.92676 0.581793 -0.365865
2.95413 0.583956 -0.362877
3.02873 0.575089 -0.360118
3.04399 0.581482 -0.361545
3.07654 0.583408 -0.364096
3.10702 0.585296 -0.370439
3.13251 0.583351 -0.374583
3.16295 0.5841 -0.377246
3.19612 0.584391 -0.380441
4.19451 0.571559 -0.360253
4.24023 0.572376 -0.365155
4.2894 0.572944 -0.365289
4.29683 0.576883 -0.367491
4.32988 0.57769 -0.368481
4.36137 0.579021 -0.373399
4.39835 0.57706 -0.380709
4.42474 0.580867 -0.373626
4.44895 0.579626 -0.378347
4.48558 0.581549 -0.376242
4.50482 0.592295 -0.364466
4.54603 0.589393 -0.37473
2.91509 0.605524 -0.360636
2.95666 0.608357 -0.361652
3.08188 0.60721 -0.362193
3.10409 0.613966 -0.365115
3.13677 0.615699 -0.372158
3.16626 0.614667 -0.375862
3.19441 0.614143 -0.379052
4.57836 0.609084 -0.363647
4.60103 0.610921 -0.367677
4.62586 0.6152 -0.367181
3.11009 0.633809 -0.362657
3.14196 0.634881 -0.370476
3.16336 0.635705 -0.371528
3.19496 0.637558 -0.376445
4.63357 0.631306 -0.360706
4.70364 0.634306 -0.369989
4.732 0.644406 -0.368442
4.75585 0.646468 -0.372474
4.77617 0.640448 -0.382502
4.80568 0.650791 -0.381062
4.85871 0.661044 -0.389942
4.86128 0.663543 -0.383994
5.30036 0.773393 -0.383119
5.40638 0.794726 -0.374494
5.50994 0.807603 -0.375389
5.51506 0.814738 -0.366407
5.65384 0.828868 -0.388701
5.6984 0.841906 -0.376352
5.85756 0.864036 -0.37562
5.86013 0.871155 -0.375772
5.73392 -1.41654 -0.349667
5.78037 -1.42778 -0.349949
5.39529 -1.32235 -0.341372
5.27835 -1.29032 -0.340854
5.31728 -1.30102 -0.341169
5.35606 -1.30724 -0.347879
5.39703 -1.3145 -0.345436
5.4 -1.31532 -0.333733
5.43693 -1.31554 -0.358886
5.23999 -1.27314 -0.354861
5.27545 -1.28952 -0.35228
5.31851 -1.2877 -0.354235
4.94877 -1.23808 -0.331823
4.98405 -1.23838 -0.339168
5.01942 -1.23613 -0.345569
5.05599 -1.24192 -0.345016
5.09354 -1.25021 -0.337678
5.12769 -1.25172 -0.351383
5.13067 -1.24728 -0.346562
5.16641 -1.2597 -0.344222
4.68573 -1.20224 -0.335098
4.74517 -1.20258 -0.358341
4.77864 -1.21088 -0.34588
4.8129 -1.21206 -0.343904
4.84549 -1.21271 -0.352485
4.87891 -1.22466 -0.343322
4.91465 -1.22217 -0.344792
4.94834 -1.22277 -0.353461
4.95014 -1.22327 -0.346347
4.98481 -1.22405 -0.355221
4.50912 -1.1716 -0.337464
4.56538 -1.17891 -0.343242
4.59393 -1.17908 -0.351179
4.62499 -1.19051 -0.339304
4.65656 -1.18783 -0.344116
4.68808 -1.19571 -0.335237
4.71662 -1.19919 -0.346765
4.74756 -1.19596 -0.358483
4.37577 -1.14099 -0.334657
4.42892 -1.14785 -0.340358
4.45385 -1.1473 -0.354324
4.48202 -1.15787 -0.346034
4.51137 -1.16533 -0.337598
4.53534 -1.16779 -0.354992
4.19881 -1.11168 -0.332615
4.22289 -1.11478 -0.336921
4.24704 -1.11609 -0.339413
4.27289 -1.11788 -0.339106
4.29861 -1.12019 -0.342563
4.32851 -1.12347 -0.346173
4.36267 -1.12846 -0.343261
4.40173 -1.13759 -0.348665
4.03535 -1.0875 -0.330626
4.06352 -1.08703 -0.334465
4.09668 -1.09104 -0.337686
4.1282 -1.09144 -0.339953
4.15156 -1.09549 -0.341657
4.17801 -1.09477 -0.345047
4.21157 -1.09589 -0.345448
4.24912 -1.10213 -0.350278
4.273 -1.10816 -0.351465
4.30024 -1.10539 -0.356128
3.9525 -1.06275 -0.332535
3.97366 -1.06224 -0.336292
4.00455 -1.06222 -0.340342
4.03942 -1.06147 -0.341937
4.06502 -1.05982 -0.347456
4.09141 -1.07149 -0.346073
4.12387 -1.06833 -0.356825
4.18045 -1.07638 -0.353965
3.85678 -1.02301 -0.333177
3.88702 -1.02576 -0.337588
3.91663 -1.0346 -0.336262
3.9456 -1.03576 -0.341715
3.97403 -1.02989 -0.347838
4.00274 -1.03633 -0.348958
4.03105 -1.03881 -0.354702
4.06814 -1.04715 -0.352903
4.0913 -1.04682 -0.35714
3.80289 -0.996737 -0.33587
3.82239 -0.998122 -0.339147
3.85261 -1.00848 -0.342178
3.88712 -1.00891 -0.350675
3.91592 -1.00734 -0.353062
3.94313 -1.00986 -0.352694
3.96249 -1.01772 -0.355839
3.7381 -0.966426 -0.34011
3.7602 -0.968538 -0.34438
3.79527 -0.978248 -0.347069
3.82551 -0.979465 -0.352428
3.85356 -0.987558 -0.353732
3.62185 -0.936035 -0.345823
3.64424 -0.938206 -0.342503
3.66691 -0.938861 -0.346099
3.70444 -0.946113 -0.348725
3.73323 -0.952041 -0.356143
3.75204 -0.95391 -0.357276
3.46528 -0.914104 -0.342521
3.5536 -0.921701 -0.34527
3.58162 -0.924347 -0.347329
3.62078 -0.926864 -0.35499
3.63006 -0.923852 -0.352509
3.46865 -0.897526 -0.35393
3.49639 -0.895954 -0.35915
3.15639 -0.694778 -0.358114
3.18084 -0.690151 -0.355488
3.21881 -0.695564 -0.358292
3.24169 -0.707008 -0.359941
2.2712 -0.666626 -0.331025
2.2953 -0.669575 -0.333988
2.32468 -0.671959 -0.335809
2.54485 -0.665962 -0.330554
2.56526 -0.670405 -0.332254
2.59724 -0.671934 -0.331261
2.63441 -0.674786 -0.330769
2.65933 -0.672523 -0.333886
2.68669 -0.676279 -0.335693
3.11023 -0.666994 -0.35878
3.13439 -0.669411 -0.354361
3.1679 -0.675523 -0.354797
3.19186 -0.674966 -0.354163
3.22753 -0.676507 -0.356385
3.2419 -0.669613 -0.356979
3.28677 -0.663108 -0.358605
2.24132 -0.64067 -0.331322
2.2646 -0.644855 -0.334405
2.29409 -0.646399 -0.340016
2.32447 -0.643987 -0.342616
2.35515 -0.644382 -0.342496
2.44692 -0.645832 -0.343234
2.4751 -0.646543 -0.340766
2.50336 -0.644716 -0.336098
2.53561 -0.642782 -0.333343
2.56359 -0.642999 -0.333752
2.59883 -0.645682 -0.332474
2.63064 -0.643685 -0.332101
2.65556 -0.644478 -0.334228
2.68564 -0.646286 -0.337748
2.71558 -0.644411 -0.338146
2.74471 -0.644466 -0.339375
2.77304 -0.644125 -0.343782
2.80367 -0.648772 -0.350747
3.07929 -0.63679 -0.355872
3.1058 -0.642978 -0.352789
3.22817 -0.647646 -0.351646
3.25862 -0.641719 -0.35418
3.29022 -0.644236 -0.358196
2.23891 -0.613373 -0.332644
2.2664 -0.615863 -0.336218
2.29505 -0.613151 -0.341266
2.32382 -0.614605 -0.343707
2.35363 -0.615144 -0.344069
2.38541 -0.614266 -0.345388
2.41643 -0.616372 -0.34468
2.44695 -0.615571 -0.343582
2.4741 -0.614616 -0.341829
2.50412 -0.614553 -0.339957
2.53454 -0.615858 -0.338429
2.56376 -0.615699 -0.334944
2.59428 -0.616062 -0.332219
2.62492 -0.615117 -0.333586
2.65647 -0.616407 -0.337635
2.68384 -0.615822 -0.340387
2.71365 -0.615165 -0.342643
2.74465 -0.612558 -0.34548
2.77286 -0.614693 -0.348971
2.80279 -0.615176 -0.354632
2.83954 -0.601306 -0.357618
2.86028 -0.608159 -0.359439
2.89477 -0.607076 -0.358288
2.91198 -0.603356 -0.359706
2.94525 -0.603653 -0.358472
3.197 -0.615137 -0.345582
3.22311 -0.615554 -0.349329
3.2517 -0.614765 -0.352863
3.27713 -0.620688 -0.355594
3.30464 -0.613522 -0.359667
2.24396 -0.597515 -0.332061
2.26433 -0.584365 -0.334306
2.29604 -0.584143 -0.340557
2.32598 -0.585576 -0.342688
2.35598 -0.584719 -0.341961
2.386 -0.5843 -0.341663
2.41472 -0.585108 -0.340737
2.44317 -0.584543 -0.339871
2.47463 -0.584578 -0.339656
2.50597 -0.585717 -0.339491
2.53539 -0.584072 -0.336518
2.56158 -0.588231 -0.332845
2.59613 -0.587459 -0.332214
2.62126 -0.585572 -0.334415
2.65499 -0.584526 -0.340205
2.68582 -0.584278 -0.343301
2.71598 -0.586682 -0.346899
2.74252 -0.585587 -0.348657
2.77341 -0.586921 -0.35401
2.80846 -0.584423 -0.357998
2.83551 -0.582224 -0.355149
2.86144 -0.583571 -0.354554
2.89407 -0.585899 -0.35517
2.92276 -0.583005 -0.35568
2.94965 -0.581959 -0.357253
2.98434 -0.578089 -0.357156
3.01598 -0.575713 -0.358312
3.05486 -0.584032 -0.358362
3.07427 -0.586007 -0.356588
3.10372 -0.583379 -0.353033
3.13367 -0.583434 -0.349167
3.16626 -0.585548 -0.345912
3.20105 -0.587607 -0.346702
3.22746 -0.582481 -0.347238
3.25784 -0.586265 -0.35011
3.2846 -0.586063 -0.354701
3.30771 -0.585552 -0.359747
2.26904 -0.556303 -0.333161
2.29865 -0.55459 -0.337791
2.32553 -0.553607 -0.337153
2.35483 -0.55435 -0.335719
2.38391 -0.555581 -0.334519
2.41252 -0.5566 -0.333523
2.44514 -0.554453 -0.334943
2.47773 -0.555167 -0.337546
2.50592 -0.554461 -0.337631
2.53108 -0.558288 -0.335001
2.5527 -0.566621 -0.330266
2.59979 -0.555661 -0.331253
2.62533 -0.554805 -0.334241
2.65951 -0.556939 -0.339131
2.69097 -0.555143 -0.342314
2.7155 -0.555396 -0.344722
2.74484 -0.556448 -0.349484
2.77317 -0.556796 -0.351075
2.80378 -0.556566 -0.350602
2.83575 -0.555994 -0.346907
2.865 -0.555135 -0.346344
2.89759 -0.555258 -0.348902
2.9248 -0.558855 -0.352468
2.95178 -0.553905 -0.353743
2.99186 -0.556145 -0.3564
3.01668 -0.556002 -0.358013
3.05154 -0.554916 -0.358199
3.07278 -0.558925 -0.358112
3.10754 -0.553575 -0.354712
3.13566 -0.554004 -0.351776
3.16473 -0.553197 -0.352356
3.19499 -0.553596 -0.349656
3.22604 -0.555363 -0.350547
3.25124 -0.559496 -0.350853
3.2776 -0.553864 -0.357341
3.30766 -0.566236 -0.359642
2.2956 -0.524627 -0.337034
2.32524 -0.525562 -0.33599
2.35366 -0.524412 -0.333973
2.37895 -0.529452 -0.331937
2.42079 -0.536204 -0.331305
2.44716 -0.525472 -0.332247
2.47223 -0.523957 -0.334715
2.50516 -0.527045 -0.334587
2.53034 -0.528642 -0.332024
2.62825 -0.531708 -0.332099
2.65787 -0.528618 -0.332846
2.68886 -0.526195 -0.335353
2.71315 -0.524993 -0.336015
2.74239 -0.529507 -0.337364
2.77615 -0.528581 -0.337012
2.80399 -0.530262 -0.335218
2.83733 -0.526513 -0.335554
2.86509 -0.525012 -0.337213
2.89432 -0.525871 -0.340415
2.92205 -0.525964 -0.343282
2.94948 -0.520996 -0.348264
2.98173 -0.527191 -0.355268
3.0118 -0.5299 -0.358861
3.07067 -0.525101 -0.35936
3.11319 -0.524078 -0.358284
3.13466 -0.527976 -0.357354
3.1688 -0.527978 -0.355288
3.1934 -0.523857 -0.356422
3.22416 -0.529673 -0.355713
3.24633 -0.528657 -0.356511
2.26975 -0.495188 -0.332523
2.29289 -0.4971 -0.336973
2.32502 -0.496284 -0.336545
2.35713 -0.495613 -0.335181
2.38155 -0.494449 -0.332487
2.44926 -0.496133 -0.331369
2.47638 -0.496842 -0.332164
2.50436 -0.495628 -0.332217
2.52411 -0.493068 -0.330933
2.55688 -0.492112 -0.330268
2.63969 -0.509668 -0.330067
2.8416 -0.507982 -0.33075
2.87276 -0.501925 -0.333583
2.89742 -0.49489 -0.33363
2.91896 -0.492951 -0.337081
2.94962 -0.494374 -0.344239
2.97827 -0.496545 -0.349787
3.01753 -0.494648 -0.357912
3.04501 -0.485572 -0.357245
3.07577 -0.495896 -0.359722
3.10087 -0.492434 -0.357164
3.12472 -0.492086 -0.358969
3.17067 -0.502536 -0.358119
3.18611 -0.505269 -0.358388
2.27525 -0.478623 -0.331348
2.29633 -0.47401 -0.331566
2.32389 -0.47516 -0.332534
2.35491 -0.47635 -0.332576
2.37603 -0.477104 -0.331238
2.48503 -0.467615 -0.331855
2.50447 -0.46425 -0.332392
2.52819 -0.46355 -0.331458
2.56311 -0.462215 -0.330951
2.89463 -0.47177 -0.330318
2.92788 -0.468854 -0.333369
2.95403 -0.465311 -0.337667
2.98706 -0.470701 -0.347684
3.02215 -0.468862 -0.354575
3.04572 -0.462454 -0.354948
3.07335 -0.461965 -0.357678
3.10337 -0.465468 -0.356992
3.13209 -0.463801 -0.358847
3.15086 -0.455698 -0.35645
2.48477 -0.442371 -0.330423
2.50671 -0.434655 -0.334397
2.53597 -0.434938 -0.33441
2.56654 -0.43517 -0.333979
2.58896 -0.429451 -0.332468
2.95851 -0.437142 -0.332965
2.98323 -0.436842 -0.336169
3.01848 -0.431903 -0.341279
3.04306 -0.435453 -0.343909
3.07523 -0.435213 -0.345643
3.10735 -0.4306 -0.349196
3.1625 -0.439163 -0.356739
3.18773 -0.431617 -0.357545
3.21274 -0.424867 -0.356694
3.25144 -0.422393 -0.359369
2.48634 -0.399207 -0.330182
2.50814 -0.406444 -0.334275
2.53432 -0.404969 -0.335958
2.56632 -0.405662 -0.3369
2.59527 -0.40391 -0.334018
2.61347 -0.400567 -0.330502
3.01701 -0.413037 -0.331869
3.0475 -0.41427 -0.332786
3.07627 -0.409605 -0.336313
3.11004 -0.404952 -0.338166
3.13327 -0.406539 -0.340843
3.19508 -0.408526 -0.350673
3.22937 -0.402276 -0.353085
3.25286 -0.41009 -0.356909
3.274 -0.399015 -0.356539
2.48775 -0.377216 -0.330328
2.53468 -0.375311 -0.33526
2.5651 -0.375275 -0.33745
2.59448 -0.373978 -0.335146
3.11048 -0.388596 -0.332821
3.14128 -0.384348 -0.332603
3.16559 -0.376291 -0.3342
3.19803 -0.384077 -0.341996
3.21785 -0.371152 -0.34579
3.24814 -0.376969 -0.353433
3.2785 -0.386539 -0.356806
2.50021 -0.350763 -0.331107
2.56526 -0.34883 -0.333419
3.25576 -0.338643 -0.355767
2.62557 -0.314286 -0.340464
2.65573 -0.314396 -0.342705
3.19288 -0.31604 -0.338626
3.22176 -0.314013 -0.349118
3.24097 -0.313964 -0.353792
2.56944 -0.280588 -0.339244
2.59649 -0.283686 -0.346212
2.62541 -0.284767 -0.349816
2.65373 -0.284312 -0.352278
3.14528 -0.279521 -0.333981
3.17121 -0.285181 -0.342066
3.19535 -0.281028 -0.354034
3.22246 -0.296234 -0.354627
2.56451 -0.253935 -0.346793
2.59504 -0.254234 -0.353856
2.6256 -0.257502 -0.356503
2.65141 -0.259461 -0.357649
3.0853 -0.252358 -0.331008
3.11155 -0.255201 -0.338398
3.12869 -0.25687 -0.343176
3.15512 -0.256007 -0.354458
3.18241 -0.269319 -0.357899
2.5353 -0.224187 -0.350355
2.56624 -0.225391 -0.355977
2.59472 -0.22517 -0.357681
2.61803 -0.226022 -0.359167
2.64205 -0.237961 -0.358711
3.07901 -0.228456 -0.332322
3.10078 -0.223698 -0.339471
3.1296 -0.222157 -0.346702
3.16606 -0.218793 -0.356584
2.5049 -0.194927 -0.350354
2.53422 -0.195376 -0.351222
2.56635 -0.196323 -0.355737
2.59242 -0.192685 -0.35782
2.62265 -0.197524 -0.359775
3.08752 -0.20418 -0.333707
3.09256 -0.191682 -0.332027
3.13208 -0.195028 -0.343837
3.17025 -0.194434 -0.354951
2.42231 -0.165793 -0.334346
2.44523 -0.164316 -0.341129
2.47809 -0.16524 -0.347722
2.50519 -0.164651 -0.349613
2.53414 -0.165903 -0.350986
2.56643 -0.163831 -0.354943
2.58978 -0.166455 -0.358557
2.61824 -0.177818 -0.359248
3.10556 -0.165127 -0.333485
3.1411 -0.169992 -0.344373
3.16543 -0.154761 -0.353272
3.19202 -0.168644 -0.358313
2.41934 -0.136973 -0.331993
2.44736 -0.133943 -0.338192
2.47743 -0.135751 -0.345831
2.50403 -0.13701 -0.34988
2.5335 -0.135695 -0.35352
2.56201 -0.13707 -0.357777
2.58651 -0.142945 -0.358931
3.08846 -0.143635 -0.330901
3.10793 -0.130176 -0.336183
3.13583 -0.142253 -0.344441
3.15716 -0.127591 -0.352374
3.18319 -0.138448 -0.357285
2.41851 -0.117994 -0.330898
2.44616 -0.103029 -0.334912
2.47344 -0.105511 -0.341281
2.5047 -0.106011 -0.349229
2.53243 -0.106178 -0.355126
2.556 -0.0984308 -0.359041
3.08917 -0.111747 -0.330783
3.10946 -0.10371 -0.337657
3.1362 -0.109694 -0.346403
3.16345 -0.106162 -0.353737
3.18491 -0.103572 -0.357438
2.42843 -0.0715874 -0.331611
2.44652 -0.0753254 -0.334248
2.47193 -0.07387 -0.339534
2.50373 -0.0740061 -0.346884
2.53356 -0.0738353 -0.352293
2.56209 -0.0707982 -0.357471
3.08561 -0.0806717 -0.333037
3.10336 -0.0738643 -0.3395
3.13261 -0.0719952 -0.349236
3.16066 -0.0730375 -0.355537
2.42247 -0.0451738 -0.331442
2.44572 -0.0447028 -0.336185
2.47465 -0.0443005 -0.341331
2.50553 -0.0457752 -0.347193
2.53438 -0.044454 -0.351829
2.56089 -0.0444575 -0.355625
2.58888 -0.0384752 -0.357965
3.05999 -0.0458758 -0.332442
3.07557 -0.0473179 -0.335997
3.09861 -0.0418017 -0.34207
3.13487 -0.0471915 -0.352159
3.1555 -0.0431737 -0.356685
2.4236 -0.0188884 -0.331951
2.44698 -0.015784 -0.339396
2.47301 -0.0148738 -0.344607
2.50498 -0.0148881 -0.3508
2.53664 -0.0156115 -0.356049
2.56503 -0.0160478 -0.358186
2.58121 -0.00344816 -0.359863
3.05397 -0.00841063 -0.332167
3.07934 -0.0156874 -0.337253
3.10506 -0.0152431 -0.343303
3.13342 -0.0151318 -0.348354
3.16044 -0.0186836 -0.355347
2.45045 0.0161698 -0.3403
2.47711 0.0134179 -0.348049
2.50621 0.0135706 -0.353338
2.53528 0.0169917 -0.356565
2.56434 0.0160584 -0.357988
2.58156 0.0154482 -0.359741
3.05719 0.0140324 -0.332357
3.07731 0.0152732 -0.33672
3.11142 0.0156686 -0.345032
3.1389 0.0116711 -0.351419
3.16196 0.0169784 -0.357274
2.45431 0.0390173 -0.339503
2.47582 0.0446349 -0.346116
2.50483 0.04526 -0.352698
2.53615 0.0426654 -0.356731
2.56755 0.0458973 -0.357523
2.58642 0.0456037 -0.358229
2.61116 0.056729 -0.359158
2.94463 0.05968 -0.332016
3.02206 0.0578849 -0.332345
3.04527 0.0456882 -0.333294
3.07307 0.0466812 -0.340234
3.10551 0.0465577 -0.349056
3.12889 0.0423782 -0.352287
3.15481 0.0434966 -0.358527
2.47939 0.0697432 -0.348364
2.50439 0.0744675 -0.355935
2.52651 0.0661895 -0.358472
2.57003 0.0719446 -0.358401
2.59189 0.0738407 -0.357708
2.6182 0.076251 -0.359576
2.9266 0.0767251 -0.344505
2.95407 0.0753164 -0.34326
2.9838 0.0768433 -0.346726
3.01318 0.0749881 -0.345501
3.04236 0.0755325 -0.346672
3.07424 0.0750708 -0.350537
3.10645 0.0733669 -0.355449
3.1303 0.0682114 -0.356484
2.50192 0.0977989 -0.357704
2.57757 0.0938182 -0.358558
2.59352 0.0959829 -0.359488
2.62047 0.107605 -0.359035
2.92407 0.096729 -0.358303
2.95336 0.0947976 -0.357189
3.0077 0.0925201 -0.358233
3.05396 0.0927264 -0.35842
3.06924 0.0940063 -0.35861
2.52109 0.149592 -0.358004
2.59602 0.135138 -0.358537
2.62262 0.137097 -0.358578
2.52996 0.162432 -0.358842
2.60278 0.153651 -0.358631
2.63035 0.163269 -0.35869
2.65555 0.17041 -0.358122
2.67253 0.170643 -0.359829
2.8452 0.164689 -0.358632
2.86345 0.166471 -0.358264
2.88889 0.162086 -0.359057
2.51905 0.187258 -0.351632
2.53327 0.196919 -0.357156
2.63131 0.19825 -0.358343
2.65432 0.195712 -0.35715
2.68166 0.195886 -0.35752
2.71083 0.201346 -0.358568
2.74399 0.206355 -0.359759
2.77698 0.206491 -0.359278
2.81407 0.200912 -0.358367
2.83326 0.197337 -0.357697
2.86637 0.195035 -0.358449
2.89474 0.18483 -0.359451
2.54112 0.223098 -0.357209
2.55238 0.235858 -0.359123
2.63134 0.225158 -0.35804
2.6534 0.224609 -0.355408
2.68332 0.225702 -0.353713
2.71541 0.22569 -0.356036
2.74179 0.227451 -0.358504
2.77593 0.22684 -0.358977
2.80781 0.227876 -0.356964
2.83256 0.225194 -0.355572
2.86004 0.2264 -0.355884
2.88483 0.225956 -0.358213
2.54583 0.254566 -0.354792
2.55909 0.257347 -0.356978
2.58265 0.267672 -0.359479
2.63523 0.253196 -0.358541
2.65415 0.253509 -0.356405
2.6857 0.255574 -0.355058
2.71393 0.255163 -0.355438
2.74331 0.253342 -0.357943
2.77594 0.247837 -0.358892
2.81274 0.247639 -0.356987
2.83593 0.252789 -0.355427
2.86452 0.255362 -0.355923
2.89672 0.256986 -0.358065
2.549 0.283695 -0.350418
2.56531 0.284537 -0.35587
2.5854 0.286053 -0.359292
2.6376 0.275902 -0.358815
2.65439 0.284976 -0.357924
2.68211 0.28408 -0.35784
2.70962 0.283702 -0.357799
2.74148 0.271923 -0.358822
2.84021 0.277573 -0.358609
2.86344 0.279943 -0.358054
2.89852 0.284599 -0.358736
2.91619 0.297164 -0.357718
2.9472 0.286156 -0.359159
2.54311 0.315033 -0.338143
2.5658 0.316574 -0.34587
2.59462 0.318241 -0.354237
2.62478 0.323295 -0.3571
2.65706 0.316076 -0.357105
2.68405 0.316127 -0.357268
2.71164 0.31494 -0.358252
2.90661 0.310118 -0.35908
2.91553 0.307192 -0.358786
2.95527 0.313527 -0.358178
2.98819 0.315181 -0.358201
2.56985 0.344497 -0.335163
2.59832 0.344448 -0.344113
2.62731 0.345118 -0.350642
2.68402 0.346071 -0.354409
2.71147 0.347398 -0.358517
2.88182 0.354308 -0.359939
2.95746 0.34121 -0.359076
2.98433 0.342338 -0.357648
2.57656 0.371153 -0.332064
2.60178 0.374172 -0.33849
2.6296 0.373352 -0.344564
2.65356 0.375724 -0.347149
2.68496 0.37428 -0.353813
2.71115 0.372401 -0.357589
2.99432 0.363107 -0.358978
2.60228 0.397885 -0.334669
2.62406 0.404264 -0.339162
2.65627 0.405708 -0.347316
2.68371 0.403514 -0.354846
2.914 0.417386 -0.359027
2.60711 0.444262 -0.330132
2.62949 0.433502 -0.337604
2.65486 0.435863 -0.344359
2.6845 0.435117 -0.353406
2.70244 0.435606 -0.359836
2.92624 0.434403 -0.358726
2.95626 0.440383 -0.358226
2.97202 0.442644 -0.357879
2.60962 0.451233 -0.330282
2.62581 0.466689 -0.334586
2.65595 0.464961 -0.34284
2.68852 0.465274 -0.351894
2.71457 0.473735 -0.356294
2.73679 0.474909 -0.359351
2.9607 0.462034 -0.358339
2.97626 0.460005 -0.357931
2.60982 0.486733 -0.332775
2.62525 0.495486 -0.334649
2.65404 0.495633 -0.341097
2.6851 0.494002 -0.347571
2.71528 0.495135 -0.354102
2.73939 0.496427 -0.359368
2.96964 0.482377 -0.35939
2.97576 0.499353 -0.359754
3.013 0.507668 -0.359509
2.63075 0.521357 -0.332873
2.65493 0.523999 -0.337492
2.68538 0.524848 -0.343958
2.71719 0.522309 -0.352759
2.73798 0.529889 -0.357727
2.96712 0.534162 -0.35882
2.98817 0.530919 -0.35814
3.01661 0.517668 -0.359723
3.41961 0.538367 -0.359203
3.43908 0.538281 -0.357709
3.46787 0.534806 -0.358174
3.49505 0.539411 -0.357245
3.53325 0.531561 -0.357355
3.55156 0.529171 -0.356009
3.57945 0.527988 -0.357238
3.60985 0.531186 -0.357097
3.64253 0.534831 -0.356706
3.6751 0.535777 -0.358797
3.73138 0.536906 -0.357992
3.79959 0.535297 -0.354767
3.82413 0.53099 -0.35494
3.85273 0.532495 -0.352561
3.88366 0.530788 -0.352969
3.91671 0.533483 -0.352396
3.93874 0.537276 -0.355877
3.97197 0.539335 -0.357843
2.63815 0.545472 -0.332061
2.65766 0.554251 -0.333491
2.68239 0.554974 -0.338789
2.71162 0.555714 -0.345933
2.74394 0.554568 -0.354897
2.77554 0.564023 -0.358031
2.9636 0.556187 -0.35733
2.98381 0.554721 -0.356693
3.00827 0.558262 -0.358072
3.04038 0.559802 -0.357468
3.37453 0.55777 -0.348969
3.40385 0.556698 -0.347057
3.43554 0.554676 -0.348826
3.46567 0.553964 -0.350986
3.49624 0.554843 -0.352349
3.52622 0.557883 -0.350904
3.55607 0.553075 -0.353205
3.58464 0.555099 -0.352063
3.61807 0.555945 -0.353697
3.64699 0.556795 -0.353766
3.67705 0.554637 -0.355382
3.70622 0.557955 -0.352918
3.73702 0.556384 -0.354805
3.76373 0.556489 -0.346534
3.79576 0.551232 -0.342607
3.82417 0.548958 -0.337052
3.85926 0.545745 -0.338558
3.88127 0.545634 -0.336869
3.91919 0.547043 -0.341256
3.93781 0.548391 -0.337657
3.96431 0.550256 -0.340483
4.00126 0.556354 -0.341022
4.03265 0.554242 -0.347614
4.05565 0.559353 -0.346009
4.08932 0.560059 -0.349512
4.11808 0.559126 -0.353451
4.1565 0.566398 -0.355529
4.25076 0.569949 -0.357798
2.66002 0.575796 -0.332583
2.68707 0.578242 -0.336991
2.71702 0.578543 -0.343592
2.74677 0.582378 -0.347697
2.77621 0.582135 -0.352195
2.80534 0.587473 -0.354186
2.83498 0.591066 -0.35523
2.86382 0.592186 -0.357063
2.89449 0.593471 -0.357914
2.92304 0.595859 -0.358132
2.96178 0.584846 -0.357689
2.98214 0.584874 -0.355272
3.01269 0.585593 -0.355545
3.04439 0.585869 -0.357436
3.06198 0.595886 -0.359015
3.43838 0.586039 -0.338425
3.46366 0.583124 -0.340594
3.49344 0.586228 -0.342018
3.52726 0.585573 -0.344034
3.55455 0.583789 -0.34492
3.58189 0.585329 -0.344402
3.61552 0.585146 -0.347141
3.64492 0.585952 -0.346617
3.67216 0.585693 -0.346256
3.70475 0.585537 -0.344987
3.73644 0.586059 -0.341151
3.76351 0.582463 -0.336872
4.00773 0.571064 -0.330576
4.09381 0.574796 -0.33477
4.12847 0.575966 -0.338375
4.16472 0.578661 -0.342206
4.18714 0.580396 -0.340778
4.22073 0.579915 -0.344361
4.25613 0.579515 -0.351115
4.26194 0.588961 -0.342708
4.30245 0.588684 -0.34935
4.323 0.594087 -0.343684
4.36594 0.58827 -0.35418
4.3825 0.594931 -0.348595
4.42877 0.592484 -0.354476
4.44344 0.594273 -0.354232
4.48855 0.599722 -0.353623
2.83657 0.601365 -0.353281
2.86473 0.60397 -0.356402
2.89143 0.605084 -0.357024
2.92412 0.606879 -0.357372
2.96681 0.60946 -0.358153
2.98589 0.610149 -0.356143
3.01496 0.611397 -0.353524
3.0459 0.615043 -0.35579
3.07302 0.618823 -0.357884
3.10012 0.627388 -0.358371
3.43582 0.608691 -0.33399
3.46156 0.608747 -0.334689
3.49195 0.613793 -0.334838
3.52534 0.615129 -0.335949
3.55471 0.615664 -0.336397
3.58481 0.613523 -0.338274
3.61926 0.616305 -0.339085
3.64368 0.613273 -0.338626
3.67106 0.615645 -0.338216
3.70694 0.614308 -0.337047
3.7373 0.614741 -0.333571
3.76695 0.612939 -0.33302
3.79682 0.629121 -0.330067
4.30926 0.603768 -0.334615
4.3307 0.604878 -0.330263
4.36934 0.606568 -0.336069
4.38976 0.605772 -0.336818
4.42982 0.606135 -0.343657
4.45465 0.611495 -0.336691
4.48865 0.609582 -0.347479
4.51446 0.612638 -0.345363
4.53842 0.613214 -0.350428
4.56546 0.622859 -0.349073
4.60616 0.61857 -0.359367
4.63302 0.625379 -0.354897
3.08395 0.630297 -0.357037
3.10196 0.632477 -0.35848
3.53201 0.632869 -0.333067
3.56414 0.64171 -0.332118
3.58318 0.64152 -0.333157
3.619 0.647839 -0.332972
3.64152 0.641966 -0.334341
3.66956 0.645842 -0.333211
3.71302 0.641398 -0.332151
3.73488 0.640605 -0.331179
3.80075 0.64 -0.3303
4.55142 0.636349 -0.334267
4.57924 0.645936 -0.330019
4.60242 0.643148 -0.338746
4.63714 0.644954 -0.345129
4.66668 0.648724 -0.34779
4.68881 0.648262 -0.354695
4.71718 0.658414 -0.353149
3.59392 0.66616 -0.33246
3.61843 0.664987 -0.33382
3.638 0.667657 -0.331921
3.68392 0.665795 -0.332992
4.67487 0.664804 -0.33956
4.78269 0.689157 -0.332405
5.38394 0.799431 -0.346678
5.52378 0.822102 -0.344869
5.70846 0.850528 -0.351674
5.87199 0.875708 -0.339273
5.99157 0.889153 -0.354523
4.91721 -1.2385 -0.314222
4.69085 -1.20365 -0.314939
4.7241 -1.20397 -0.313724
4.81788 -1.2223 -0.312635
4.85155 -1.22554 -0.313982
4.88336 -1.22589 -0.325793
4.48892 -1.17346 -0.30091
4.51321 -1.17273 -0.321337
4.54347 -1.18043 -0.309334
4.57284 -1.18097 -0.313822
4.63088 -1.19214 -0.316106
4.69149 -1.19665 -0.321799
4.27393 -1.14091 -0.305199
4.30136 -1.14494 -0.300248
4.33551 -1.14289 -0.312084
4.364 -1.14565 -0.314377
4.39991 -1.14873 -0.311329
4.42181 -1.14787 -0.314548
4.45939 -1.15903 -0.319115
4.4876 -1.16968 -0.310589
4.51547 -1.16646 -0.321471
4.10435 -1.11517 -0.307493
4.12754 -1.11506 -0.311344
4.15107 -1.11741 -0.314678
4.18325 -1.12354 -0.312302
4.215 -1.12475 -0.312685
4.24919 -1.12567 -0.319154
4.27473 -1.1303 -0.316226
4.30211 -1.13337 -0.312725
4.32644 -1.13177 -0.326279
4.35866 -1.1384 -0.317214
4.38192 -1.13602 -0.319181
3.95275 -1.08373 -0.30416
3.9739 -1.08334 -0.307757
4.00926 -1.0925 -0.309877
4.03671 -1.09705 -0.313274
4.0592 -1.09927 -0.316565
4.09443 -1.1039 -0.319242
4.1269 -1.10549 -0.326186
4.15354 -1.10313 -0.324557
4.17715 -1.10928 -0.322636
3.85416 -1.05131 -0.305435
3.88411 -1.05716 -0.306813
3.91348 -1.0617 -0.312023
3.94265 -1.07094 -0.311904
3.97486 -1.07559 -0.314476
3.9989 -1.07552 -0.327839
3.76185 -1.02381 -0.301465
3.79379 -1.03289 -0.30606
3.82659 -1.03726 -0.310249
3.85598 -1.03606 -0.318942
3.88271 -1.04017 -0.321634
3.91524 -1.04701 -0.324956
3.70603 -0.992298 -0.3061
3.7457 -1.01019 -0.306189
3.76446 -1.01042 -0.309671
3.79265 -1.00897 -0.319035
3.8213 -1.0139 -0.322349
3.67428 -0.970865 -0.309207
3.70246 -0.977177 -0.311689
3.7344 -0.983436 -0.32092
3.75687 -0.985058 -0.322795
3.67288 -0.951439 -0.323863
3.7002 -0.957679 -0.325094
2.23585 -0.705416 -0.324641
2.26574 -0.703533 -0.323701
2.2047 -0.675479 -0.321014
2.23477 -0.67437 -0.32412
2.26346 -0.676048 -0.326171
2.2931 -0.68341 -0.327736
2.56672 -0.678108 -0.327819
2.59449 -0.677332 -0.327495
2.61929 -0.676441 -0.327096
2.64244 -0.669201 -0.327773
2.21046 -0.647647 -0.32437
2.23378 -0.646845 -0.326853
2.26485 -0.657462 -0.3291
2.52816 -0.653106 -0.328736
2.57297 -0.648657 -0.329298
2.59259 -0.647316 -0.328483
2.61722 -0.647937 -0.328561
2.21604 -0.623425 -0.326891
2.23229 -0.61905 -0.328795
2.57201 -0.61563 -0.328912
2.58799 -0.615062 -0.328813
2.61523 -0.622517 -0.32872
2.2357 -0.581559 -0.327605
2.56788 -0.583442 -0.328023
2.5928 -0.586585 -0.328349
2.24265 -0.555184 -0.327586
2.254 -0.553404 -0.329047
2.38912 -0.544549 -0.329121
2.41454 -0.54375 -0.328662
2.54218 -0.550847 -0.328199
2.56523 -0.553481 -0.326312
2.59054 -0.55522 -0.328018
2.35968 -0.521181 -0.328388
2.38652 -0.524291 -0.327857
2.41438 -0.522885 -0.327479
2.43513 -0.52322 -0.327203
2.47135 -0.518493 -0.329877
2.514 -0.515752 -0.328612
2.54056 -0.524465 -0.32816
2.56015 -0.524009 -0.324592
2.59052 -0.524617 -0.325667
2.6272 -0.519661 -0.328262
2.65765 -0.516343 -0.327972
2.67634 -0.515987 -0.328518
2.71484 -0.512987 -0.328646
2.73715 -0.511898 -0.325108
2.77223 -0.516687 -0.328112
2.80241 -0.514031 -0.327133
2.83088 -0.512702 -0.327472
2.29218 -0.481718 -0.329739
2.36359 -0.507208 -0.328385
2.3923 -0.497771 -0.328249
2.41515 -0.495173 -0.326607
2.44288 -0.490948 -0.327326
2.46706 -0.491505 -0.329372
2.50488 -0.492916 -0.329329
2.53477 -0.49507 -0.327488
2.56707 -0.497352 -0.325864
2.59236 -0.493239 -0.32283
2.62486 -0.494221 -0.32353
2.6855 -0.495058 -0.321433
2.71549 -0.495029 -0.31836
2.7479 -0.493627 -0.318075
2.77628 -0.493754 -0.319374
2.80052 -0.496049 -0.320672
2.83251 -0.494247 -0.323663
2.86415 -0.491159 -0.326687
2.26785 -0.463438 -0.322755
2.29304 -0.461727 -0.32417
2.32469 -0.461293 -0.324261
2.35591 -0.462077 -0.322919
2.38418 -0.465192 -0.321053
2.41859 -0.466044 -0.323992
2.4457 -0.465043 -0.325908
2.46688 -0.465215 -0.327907
2.50299 -0.465865 -0.329002
2.54125 -0.467366 -0.327616
2.57028 -0.464738 -0.327092
2.59583 -0.46559 -0.323703
2.71516 -0.464318 -0.306672
2.74861 -0.46629 -0.310077
2.77674 -0.46431 -0.311475
2.80092 -0.465007 -0.311462
2.83628 -0.463474 -0.315289
2.86343 -0.46805 -0.32112
2.89289 -0.462021 -0.324494
2.91763 -0.455457 -0.326249
2.24619 -0.431258 -0.304345
2.26499 -0.435479 -0.30777
2.29355 -0.436724 -0.309079
2.32217 -0.440117 -0.309209
2.35435 -0.440165 -0.307955
2.41904 -0.435105 -0.315116
2.44702 -0.434766 -0.32111
2.47317 -0.43519 -0.327711
2.50653 -0.444119 -0.329075
2.5379 -0.44721 -0.328353
2.57499 -0.444392 -0.328004
2.59852 -0.437401 -0.326345
2.62609 -0.433869 -0.318665
2.65446 -0.434563 -0.30736
2.74707 -0.435157 -0.305504
2.77732 -0.434815 -0.304605
2.80323 -0.438332 -0.304667
2.83117 -0.438553 -0.307142
2.86699 -0.430845 -0.312022
2.89591 -0.437723 -0.318792
2.92808 -0.433612 -0.323689
2.95506 -0.423805 -0.326696
2.97619 -0.422252 -0.327985
2.2636 -0.419912 -0.300259
2.39204 -0.408423 -0.301937
2.41957 -0.405775 -0.309021
2.44668 -0.404252 -0.317421
2.47643 -0.404428 -0.326444
2.60486 -0.413423 -0.327937
2.62691 -0.406848 -0.321275
2.74197 -0.408672 -0.302674
2.77514 -0.416409 -0.301885
2.84872 -0.40319 -0.300824
2.86447 -0.40622 -0.304966
2.89481 -0.407367 -0.310084
2.92733 -0.401699 -0.315799
2.95658 -0.405869 -0.320613
2.98944 -0.403424 -0.322758
3.01312 -0.399978 -0.321322
3.04796 -0.402619 -0.32766
3.07299 -0.393764 -0.325262
2.36258 -0.361878 -0.301894
2.39153 -0.369162 -0.302522
2.41627 -0.376152 -0.310546
2.44413 -0.372781 -0.320172
2.47413 -0.37498 -0.326718
2.49471 -0.372839 -0.327514
2.89457 -0.383997 -0.303774
2.92089 -0.380086 -0.30336
2.94941 -0.380929 -0.306376
2.98317 -0.378778 -0.307345
3.0192 -0.375895 -0.310051
3.04703 -0.376351 -0.314126
3.07592 -0.37435 -0.317975
3.10308 -0.372369 -0.319676
3.1323 -0.368803 -0.324034
2.27392 -0.338815 -0.301608
2.29829 -0.334198 -0.300989
2.32829 -0.339161 -0.304001
2.35496 -0.344852 -0.306968
2.38585 -0.346714 -0.313316
2.4155 -0.345003 -0.32084
2.44323 -0.345174 -0.324157
2.47273 -0.34457 -0.325498
2.50256 -0.344358 -0.327101
3.01781 -0.357665 -0.303114
3.05199 -0.343971 -0.3012
3.07964 -0.346201 -0.307036
3.09812 -0.350803 -0.309992
2.27948 -0.325066 -0.302115
2.29267 -0.323041 -0.301941
2.32317 -0.319528 -0.30257
2.35412 -0.318199 -0.306593
2.38696 -0.314954 -0.310965
2.41486 -0.313358 -0.311668
2.4446 -0.317136 -0.31399
2.47533 -0.315737 -0.310987
2.50402 -0.316975 -0.311863
3.16375 -0.310215 -0.327696
2.36742 -0.297678 -0.301764
2.39817 -0.297333 -0.302518
2.40529 -0.296573 -0.301681
2.43021 -0.298682 -0.300347
3.05939 -0.2738 -0.303659
3.07564 -0.275309 -0.306579
3.11289 -0.279921 -0.318725
3.13923 -0.297678 -0.321587
3.0221 -0.243521 -0.308173
3.0436 -0.255009 -0.309589
3.06161 -0.263146 -0.309708
3.09462 -0.264035 -0.324385
2.96711 -0.215537 -0.300526
2.98613 -0.221551 -0.302585
3.01293 -0.219929 -0.31095
3.04789 -0.228265 -0.321352
2.98365 -0.196165 -0.302197
3.01492 -0.194715 -0.309837
3.05071 -0.194822 -0.320081
2.4039 -0.160712 -0.326307
2.99509 -0.165006 -0.302118
3.02028 -0.172134 -0.308986
3.04502 -0.165297 -0.316127
3.06704 -0.159658 -0.32089
2.38381 -0.134567 -0.318056
2.41058 -0.132451 -0.326802
2.4301 -0.120897 -0.32894
2.99246 -0.128373 -0.302812
3.01457 -0.133308 -0.306689
3.03998 -0.135891 -0.314317
3.07389 -0.136482 -0.324462
3.0908 -0.140146 -0.32711
2.35944 -0.107857 -0.307351
2.38461 -0.104502 -0.316551
2.41407 -0.102223 -0.325148
2.4352 -0.106747 -0.329242
2.98536 -0.101127 -0.302485
3.01617 -0.10845 -0.310935
3.0427 -0.105656 -0.317605
3.06817 -0.101217 -0.324493
2.38864 -0.0776748 -0.319779
2.41256 -0.0764663 -0.325571
2.43163 -0.0717348 -0.328826
2.96367 -0.0709951 -0.301401
2.98461 -0.0753782 -0.305811
3.01652 -0.0750054 -0.315041
3.04386 -0.0723205 -0.322097
3.06833 -0.0765617 -0.328358
2.41122 -0.0502633 -0.327409
2.95504 -0.0409479 -0.304106
2.98581 -0.0452493 -0.311473
3.01418 -0.0461216 -0.318723
3.03842 -0.0433216 -0.325684
3.06714 -0.0587602 -0.329347
2.41146 -0.0291582 -0.326824
2.95811 -0.0157945 -0.305126
2.98509 -0.0136034 -0.312672
3.01522 -0.0148664 -0.32054
3.04556 -0.0175753 -0.326604
2.92506 0.0238389 -0.30254
3.01242 0.0153556 -0.319279
3.04479 0.00980526 -0.326859
2.92434 0.0464254 -0.312872
2.95461 0.0449935 -0.316466
2.98602 0.0460033 -0.321348
3.01242 0.047608 -0.325169
3.03339 0.0331195 -0.325528
2.92157 0.062934 -0.326605
2.9574 0.0623249 -0.327629
2.98326 0.0621837 -0.327085
2.53031 0.327024 -0.325945
2.5299 0.344666 -0.320379
2.5564 0.349692 -0.328482
2.53598 0.375715 -0.316868
2.5662 0.37641 -0.326725
2.58001 0.384175 -0.328607
2.53992 0.404328 -0.312418
2.57075 0.403951 -0.322124
2.5903 0.412811 -0.326641
2.5411 0.434159 -0.309801
2.56332 0.434442 -0.315014
2.59394 0.433943 -0.324044
2.54729 0.452941 -0.311295
2.56915 0.461551 -0.318234
2.59196 0.468284 -0.324144
2.61085 0.452427 -0.327441
2.57349 0.487154 -0.321485
2.5928 0.494842 -0.326278
2.61104 0.487919 -0.329952
2.59744 0.52384 -0.32497
2.61863 0.531253 -0.327005
2.60143 0.5534 -0.322785
2.62373 0.555913 -0.325438
2.64119 0.562742 -0.328044
3.77487 0.568197 -0.328763
3.79685 0.563995 -0.326529
3.82581 0.56151 -0.323258
3.85427 0.561389 -0.320895
3.91798 0.562055 -0.320782
3.94974 0.564389 -0.323795
3.97342 0.563858 -0.325705
4.00727 0.566052 -0.325663
4.02462 0.56703 -0.323946
4.05856 0.569584 -0.327991
2.60424 0.571755 -0.322365
2.62474 0.573419 -0.324738
2.6465 0.574706 -0.328682
3.77185 0.584321 -0.328677
3.79296 0.584996 -0.322848
3.82566 0.583985 -0.31662
3.85359 0.58525 -0.312378
3.94223 0.581348 -0.309604
4.00582 0.582534 -0.311523
4.03804 0.584255 -0.31429
4.05671 0.583383 -0.315776
4.09522 0.58784 -0.315308
4.13254 0.590423 -0.317523
4.14217 0.595084 -0.314384
4.18659 0.592507 -0.323934
4.23293 0.596595 -0.322566
4.2695 0.597925 -0.327403
3.43673 0.620586 -0.326597
3.46212 0.625396 -0.326267
3.49554 0.624956 -0.327116
3.53089 0.626609 -0.32884
3.67222 0.629991 -0.327932
3.70924 0.621348 -0.329909
3.73921 0.625797 -0.326994
3.76636 0.617805 -0.327488
3.79475 0.615409 -0.327177
3.82306 0.613193 -0.324078
3.85446 0.616344 -0.3222
4.09526 0.602322 -0.302615
4.11381 0.603544 -0.300882
4.1482 0.604073 -0.304618
4.18574 0.604257 -0.310096
4.20352 0.605874 -0.30601
4.24099 0.60973 -0.310919
4.27857 0.612786 -0.314438
4.31397 0.613017 -0.319783
4.33765 0.618216 -0.314045
4.36453 0.615289 -0.317414
4.39473 0.621258 -0.316867
4.43884 0.620003 -0.329561
4.44302 0.624622 -0.320664
4.48644 0.628029 -0.323407
3.43259 0.643273 -0.31657
3.46427 0.645349 -0.318788
3.49423 0.641434 -0.323098
3.52441 0.645316 -0.325566
3.55207 0.649601 -0.326537
3.58841 0.647638 -0.327899
3.64965 0.65768 -0.326797
3.68094 0.643338 -0.328405
3.70142 0.650134 -0.327849
3.73797 0.648397 -0.325043
3.76121 0.646305 -0.32354
3.79655 0.647878 -0.323624
3.82408 0.647186 -0.317995
3.85412 0.642171 -0.310797
3.88191 0.632991 -0.310407
4.39595 0.634669 -0.302635
4.43219 0.640205 -0.30498
4.46363 0.644362 -0.310204
4.47937 0.640209 -0.312135
4.50742 0.647916 -0.311852
4.54593 0.642765 -0.32291
4.56511 0.65929 -0.315327
4.60608 0.655501 -0.325324
3.43803 0.663801 -0.309331
3.47209 0.665724 -0.314178
3.49006 0.666419 -0.314392
3.52487 0.669291 -0.31897
3.55394 0.66983 -0.3223
3.58672 0.674806 -0.32531
3.61567 0.678979 -0.325739
3.64536 0.678482 -0.32411
3.67411 0.677147 -0.32445
3.70462 0.675378 -0.319318
3.73367 0.674108 -0.313336
3.7628 0.674531 -0.30838
3.79407 0.666896 -0.310656
3.8172 0.663499 -0.31076
3.84461 0.660516 -0.30265
4.56945 0.667002 -0.30994
4.61725 0.673442 -0.308858
4.63431 0.668206 -0.323706
4.67978 0.669563 -0.32823
4.68457 0.678429 -0.322704
4.73467 0.684524 -0.324782
4.78417 0.688746 -0.326542
3.6582 0.691247 -0.316556
3.68017 0.692468 -0.310486
3.70534 0.692889 -0.309614
3.73528 0.693808 -0.303352
3.75603 0.692885 -0.303537
4.76617 0.694109 -0.311306
4.96644 0.733443 -0.317351
4.98193 0.733932 -0.328242
5.39337 0.807518 -0.323529
5.5326 0.830658 -0.324499
5.5775 0.842591 -0.301639
5.72122 0.858401 -0.316325
4.43802 -1.17401 -0.273489
4.46301 -1.17362 -0.287022
4.49089 -1.17914 -0.286391
4.51882 -1.18461 -0.285655
4.54841 -1.1818 -0.289854
4.22378 -1.14513 -0.282135
4.24797 -1.14439 -0.283861
4.27834 -1.14457 -0.284616
4.30648 -1.14417 -0.282939
4.33174 -1.15251 -0.280118
4.35729 -1.16098 -0.276076
4.39072 -1.15933 -0.287842
4.42094 -1.15978 -0.288107
4.01 -1.11223 -0.278603
4.03986 -1.11932 -0.272786
4.06176 -1.11612 -0.285294
4.09604 -1.12074 -0.286576
4.13116 -1.12545 -0.284776
4.15566 -1.13117 -0.280195
4.18498 -1.13595 -0.282287
4.21218 -1.13313 -0.294448
4.25205 -1.13846 -0.292143
4.27867 -1.13247 -0.299304
4.30584 -1.13963 -0.291189
3.89353 -1.08531 -0.273639
3.91339 -1.08782 -0.278078
3.94458 -1.0918 -0.2846
3.97353 -1.09525 -0.293461
4.00229 -1.10441 -0.288861
4.03522 -1.10706 -0.288912
4.06186 -1.10692 -0.296992
3.79811 -1.05346 -0.278612
3.82792 -1.06219 -0.280277
3.8538 -1.06282 -0.29162
3.88105 -1.0727 -0.284925
3.91258 -1.07579 -0.296737
3.70533 -1.02776 -0.275628
3.73728 -1.03079 -0.283508
3.77015 -1.03874 -0.287626
3.7868 -1.04181 -0.284466
3.82315 -1.04593 -0.2987
3.67538 -1.00353 -0.286793
3.69722 -1.0047 -0.28987
3.72677 -1.01449 -0.29736
3.63789 -0.971894 -0.294998
3.66292 -0.9784 -0.297368
3.6959 -0.989641 -0.298582
2.25765 -0.421942 -0.299195
2.29183 -0.423711 -0.297284
2.32244 -0.425731 -0.296337
2.35 -0.424065 -0.296116
2.68829 -0.425175 -0.298422
2.71116 -0.424933 -0.299667
2.78619 -0.423388 -0.297187
2.80283 -0.422254 -0.296261
2.83113 -0.425066 -0.299646
2.24522 -0.404527 -0.29381
2.26518 -0.402838 -0.286986
2.29453 -0.405081 -0.282595
2.3221 -0.404015 -0.282726
2.34986 -0.403877 -0.287583
2.38163 -0.403128 -0.295702
2.77407 -0.402346 -0.295404
2.7984 -0.405065 -0.292074
2.82943 -0.402959 -0.296043
2.85157 -0.398126 -0.297286
2.24571 -0.381141 -0.289196
2.2638 -0.373849 -0.280964
2.29431 -0.372486 -0.274119
2.32315 -0.372204 -0.278157
2.35461 -0.372955 -0.287861
2.37969 -0.375574 -0.29525
2.86826 -0.3724 -0.29493
2.8883 -0.371997 -0.294648
2.92293 -0.366947 -0.295547
2.95428 -0.364464 -0.294329
2.97249 -0.369186 -0.296531
3.01744 -0.361696 -0.299163
2.26828 -0.35159 -0.291332
2.2923 -0.347941 -0.290372
2.32194 -0.351633 -0.292967
2.3494 -0.355363 -0.298018
2.95149 -0.34413 -0.284065
3.01357 -0.345824 -0.294421
3.04573 -0.339546 -0.295899
3.07218 -0.333165 -0.298289
2.27909 -0.307899 -0.297122
2.2937 -0.310315 -0.297459
2.3234 -0.305939 -0.297517
2.3522 -0.301658 -0.297827
2.44429 -0.300157 -0.295311
2.46372 -0.300205 -0.296634
2.27569 -0.282707 -0.288041
2.29365 -0.284824 -0.286373
2.3241 -0.283493 -0.284261
2.35605 -0.285458 -0.288129
2.3855 -0.280545 -0.284352
2.41494 -0.285343 -0.285936
2.44629 -0.285178 -0.286888
3.01074 -0.284123 -0.276095
3.04351 -0.283889 -0.288151
3.07375 -0.283605 -0.298529
2.27225 -0.255765 -0.277449
2.28806 -0.26398 -0.274335
2.32722 -0.267602 -0.273883
2.35368 -0.265543 -0.272915
2.95895 -0.250858 -0.279463
2.98739 -0.25383 -0.286666
3.01278 -0.257296 -0.294603
2.95431 -0.227044 -0.291338
2.97668 -0.228967 -0.295931
2.95635 -0.165731 -0.291279
2.97155 -0.153649 -0.294845
2.9514 -0.135108 -0.288809
2.97881 -0.137254 -0.296269
2.92535 -0.105693 -0.286259
2.9536 -0.103161 -0.292221
2.97383 -0.10506 -0.297212
2.92372 -0.0750638 -0.29067
2.9502 -0.0777571 -0.296597
2.92512 -0.0453494 -0.295645
2.947 -0.0458815 -0.2994
2.94855 -0.0294726 -0.299612
4.00561 0.597114 -0.293514
4.04238 0.595706 -0.297996
4.06026 0.597098 -0.298869
4.00488 0.60947 -0.283672
4.03306 0.612659 -0.27969
4.05911 0.610283 -0.28525
4.09516 0.614126 -0.279653
4.11511 0.614307 -0.285123
4.14686 0.618914 -0.281556
4.17755 0.618759 -0.285807
4.20807 0.621269 -0.28758
4.23493 0.624581 -0.28511
4.27198 0.626343 -0.288797
4.30818 0.624817 -0.295178
3.85468 0.650899 -0.285259
3.88006 0.639876 -0.287584
4.18385 0.630407 -0.278547
4.20254 0.631724 -0.276422
4.23998 0.63334 -0.278517
4.27987 0.639278 -0.277511
4.31534 0.63784 -0.286627
4.33071 0.640985 -0.283009
4.35728 0.643595 -0.285935
4.40032 0.651378 -0.283953
4.46077 0.654359 -0.296113
3.76603 0.684475 -0.29514
3.79426 0.678164 -0.294713
3.82663 0.674718 -0.288046
3.84722 0.673183 -0.276804
4.40721 0.6631 -0.27465
4.44842 0.66443 -0.278661
4.51054 0.668087 -0.289692
4.53458 0.67214 -0.283818
4.57898 0.676246 -0.28793
4.62449 0.680455 -0.292159
4.66563 0.686435 -0.290656
3.71684 0.69421 -0.299742
3.74219 0.697617 -0.29309
3.76961 0.696786 -0.289323
3.79666 0.697014 -0.284613
3.82503 0.697691 -0.279873
3.85566 0.69983 -0.275266
3.88559 0.701058 -0.271638
4.70661 0.701896 -0.274621
4.72477 0.696768 -0.289601
4.80839 0.719633 -0.280366
4.78803 0.725425 -0.274147
4.86963 0.740912 -0.270374
4.91514 0.738539 -0.289578
4.97388 0.751773 -0.281926
5.15042 0.780644 -0.286917
5.24503 0.795423 -0.282956
5.36959 0.808833 -0.296074
5.37191 0.815271 -0.296211
5.44521 0.827064 -0.277901
5.57925 0.842107 -0.294729
5.81169 0.869956 -0.271705
5.80986 0.870462 -0.278925
5.9274 0.883356 -0.288928
4.27872 -1.17472 -0.24372
4.30444 -1.17718 -0.24697
4.33119 -1.17587 -0.251484
4.35739 -1.17735 -0.254254
4.38623 -1.17721 -0.249735
4.41602 -1.18074 -0.251204
4.09426 -1.14457 -0.247264
4.12962 -1.14382 -0.253775
4.15763 -1.15025 -0.248144
4.18259 -1.15126 -0.248103
4.21515 -1.15482 -0.25301
4.24839 -1.15506 -0.257572
4.28045 -1.15849 -0.258822
4.30548 -1.16079 -0.264748
4.33129 -1.16602 -0.264003
4.36026 -1.16378 -0.261771
4.38664 -1.16399 -0.265601
3.95786 -1.11501 -0.244848
3.97619 -1.11401 -0.25936
4.00402 -1.11935 -0.253896
4.03737 -1.12247 -0.256853
4.06503 -1.12933 -0.256258
4.09339 -1.13168 -0.260049
4.12443 -1.13529 -0.258792
4.15893 -1.13612 -0.261996
3.82919 -1.08308 -0.253323
3.8556 -1.0882 -0.251922
3.88326 -1.09294 -0.252733
3.91536 -1.10018 -0.254812
3.93889 -1.10322 -0.259244
3.97816 -1.10854 -0.259476
3.7695 -1.0623 -0.255117
3.79286 -1.06657 -0.255246
3.83239 -1.07292 -0.261438
3.85758 -1.07548 -0.261498
3.76316 -1.04676 -0.266659
2.28382 -0.38784 -0.269967
2.27658 -0.24527 -0.266084
2.29413 -0.250532 -0.262057
2.32539 -0.251186 -0.26117
4.03355 0.624781 -0.257934
4.0584 0.621571 -0.26275
4.08357 0.627881 -0.255833
4.12519 0.628784 -0.261738
3.86353 0.649877 -0.263192
3.8822 0.646653 -0.255965
3.91164 0.641738 -0.24938
4.09803 0.633171 -0.250409
4.12249 0.634144 -0.246902
4.158 0.637431 -0.250229
4.17608 0.638984 -0.25059
4.21752 0.637779 -0.264249
4.23793 0.648945 -0.250509
4.27054 0.648908 -0.256548
4.31208 0.657997 -0.253788
4.32636 0.653129 -0.267217
4.36697 0.656645 -0.268362
3.85724 0.676696 -0.267312
3.88351 0.674321 -0.25632
3.91645 0.67511 -0.246597
4.26118 0.661935 -0.240143
4.2988 0.66291 -0.240761
4.36414 0.668216 -0.249316
4.39267 0.669535 -0.250021
4.42692 0.671504 -0.252575
4.49089 0.674349 -0.264439
4.52857 0.683545 -0.245442
4.53628 0.682406 -0.253765
4.56494 0.680798 -0.265338
4.59302 0.687217 -0.252077
3.85687 0.706851 -0.268331
3.88707 0.698487 -0.262436
4.57706 0.695166 -0.240803
4.59497 0.692617 -0.252193
4.69017 0.706855 -0.257191
4.74782 0.727307 -0.247125
4.79071 0.726552 -0.266023
4.87443 0.742755 -0.255596
4.87981 0.750781 -0.246876
4.956 0.756274 -0.257236
5.0313 0.766616 -0.260079
5.13142 0.784906 -0.258065
5.19792 0.798981 -0.243444
5.34885 0.816241 -0.265738
5.49025 0.834762 -0.245041
5.59219 0.845916 -0.253409
5.66414 0.85369 -0.258296
3.91834 -1.1069 -0.235347
3.91614 0.650192 -0.23516
3.94781 0.648745 -0.226579
4.11554 0.646738 -0.22524
4.15094 0.649781 -0.22864
4.18638 0.652118 -0.230953
4.22311 0.655645 -0.234165
4.26069 0.656631 -0.234945
3.92429 0.665997 -0.232947
4.17786 0.663742 -0.213635
4.22149 0.664848 -0.220508
4.2528 0.670719 -0.21466
4.26805 0.668196 -0.22375
4.29809 0.671911 -0.221628
4.33749 0.672056 -0.22383
4.36817 0.674087 -0.216005
4.38926 0.675763 -0.213638
4.42574 0.676436 -0.225841
4.45758 0.6765 -0.236738
4.49277 0.685938 -0.223024
4.529 0.680508 -0.239918
4.54194 0.697371 -0.215714
4.57846 0.694779 -0.235274
4.68535 0.726628 -0.217612
4.76337 0.741468 -0.210049
4.80377 0.739756 -0.236624
4.83708 0.749287 -0.216599
5.00151 0.776636 -0.215628
5.02024 0.769137 -0.237272
5.08459 0.785963 -0.22609
5.20741 0.803158 -0.214931
5.29899 0.812855 -0.219088
5.42473 0.82737 -0.237327
5.49196 0.834288 -0.238274
5.79219 0.880228 -0.22492
4.14192 0.657629 -0.208174
4.15611 0.669527 -0.19819
4.17466 0.669565 -0.194906
4.21608 0.67041 -0.20224
4.24256 0.674494 -0.189285
4.27339 0.672162 -0.209851
4.29661 0.672879 -0.194695
4.33729 0.675899 -0.187018
4.37755 0.679876 -0.190017
4.45629 0.685884 -0.203761
4.42264 0.690989 -0.18508
4.45816 0.691077 -0.203873
4.48991 0.704645 -0.182908
4.52556 0.702216 -0.201863
4.53679 0.716532 -0.18046
4.59559 0.716621 -0.20262
4.6034 0.723321 -0.183442
4.69335 0.733484 -0.197985
4.72461 0.742934 -0.181246
4.76483 0.741065 -0.20429
4.79706 0.747744 -0.184395
4.79909 0.753372 -0.184515
4.8981 0.764752 -0.199758
5.03833 0.783766 -0.191724
5.12161 0.793162 -0.201537
5.20903 0.802712 -0.208565
5.50958 0.843878 -0.187804
5.64583 0.859793 -0.205713
4.24639 0.673436 -0.174167
4.27061 0.677977 -0.160438
4.30579 0.678546 -0.169256
4.33116 0.686955 -0.156485
4.36312 0.684648 -0.176997
4.40165 0.697987 -0.162971
4.42398 0.690618 -0.179794
4.45415 0.706912 -0.16413
4.52384 0.71777 -0.153539
4.53817 0.716151 -0.175024
4.52574 0.723021 -0.153651
4.61052 0.730215 -0.167028
4.65662 0.735087 -0.169961
4.72606 0.742536 -0.175554
4.75815 0.75186 -0.155656
4.83218 0.759926 -0.161396
4.9325 0.771526 -0.176136
5.10812 0.79603 -0.155078
5.16573 0.802277 -0.158051
5.25263 0.809178 -0.167391
5.25487 0.815403 -0.167524
5.31558 0.818677 -0.167342
5.41031 0.829447 -0.177393
5.65622 0.864361 -0.174534
4.18591 0.679919 -0.128971
4.2088 0.676895 -0.141182
4.24786 0.687702 -0.124576
4.26805 0.683171 -0.142903
